256

-4.004588	-1.867286	2.631550	-0.346655	-0.092603	-0.549189
-3.304534	-5.666991	-3.056788	1.102845	0.084514	1.597758
-1.661153	4.395775	3.318941	1.359961	0.040764	-0.289727
-4.052732	1.841508	1.780273	1.394676	-0.782627	-1.209482
-3.093927	-0.399069	0.611135	1.161696	-1.025612	-0.036701
0.453154	-2.851843	-4.402950	-0.268906	-0.189533	0.056598
-3.835449	-5.452200	4.073850	-0.449451	2.336256	1.334727
2.014028	6.304042	-2.134009	0.229657	-0.195473	-0.313468
-2.353315	0.963570	3.870230	0.580088	0.356391	1.041026
2.559817	4.304685	-1.829323	1.272943	1.454962	0.010800
1.720357	-1.483351	0.618296	-0.071476	-1.008760	-1.381464
1.310542	-2.414290	2.359060	2.559186	1.498011	0.319276
-0.053289	1.894289	0.715605	0.706496	-0.306594	0.504192
1.875729	-1.092847	1.562398	0.916288	-0.074359	1.454352
0.492729	0.878054	-2.403775	0.127685	0.248189	0.234730
0.006986	-1.008014	-4.400687	-0.381543	-0.420025	0.074288
-0.016525	2.884404	1.638730	1.165864	1.394367	-0.648811
0.228017	5.115066	-1.788403	-1.365061	-0.513485	-1.158185
2.213919	-1.414949	-3.573274	0.189045	0.494365	-0.511587
-2.671470	-5.799478	-4.436051	-0.969907	-2.146467	-0.683682
-0.016682	1.423737	-0.261427	0.064600	0.297040	1.233291
-1.562222	-1.555228	0.666819	-1.536180	0.443300	0.256493
1.910843	-3.421135	-3.824905	0.384408	-0.606826	0.014970
2.035126	1.553988	-5.361811	-0.767136	-0.140293	-0.741406
3.889644	-7.421981	-3.470447	2.054039	0.799289	-1.060346
1.654816	2.749476	-5.325591	-1.009894	-1.504810	-0.673629
2.868943	0.982577	7.096975	-0.887946	0.009019	0.133630
1.217114	2.484521	-1.941219	0.536243	1.153215	-0.217742
-0.775889	-5.017164	-1.755060	-0.571146	-0.303369	0.831883
3.884170	-0.230956	-0.122576	-1.131847	0.361417	-0.935273
-5.377469	5.725487	-4.269879	-1.516069	-0.537803	0.525890
1.993994	2.554272	4.835284	-0.316386	-0.599842	0.782701
1.846418	1.514269	-2.758109	-0.064114	0.935071	0.160728
0.014724	-5.014840	3.368264	-0.413636	0.399620	0.685145
-1.875865	-9.087978	4.347190	0.863284	-1.592274	1.197259
-1.786491	-3.120880	-5.677455	1.079988	0.163890	1.351211
1.181268	-1.183233	-5.005277	-0.943801	-2.074175	1.417439
0.014492	-0.579686	0.052352	1.100926	-0.834437	-0.319541
-4.974406	3.557423	-2.438770	0.233669	-0.419666	-0.043048
-0.871561	3.185374	0.763157	-1.143991	0.443882	0.027350
2.894255	-0.711430	3.067765	-0.711416	-0.085353	-0.816261
0.105709	0.120556	0.973216	-0.245633	0.070415	-0.850911
-2.936188	-4.194340	0.555346	0.002817	1.740840	0.288647
1.084106	-0.169927	1.679988	0.383967	-0.023036	0.696179
2.427164	-4.583591	-5.329962	1.927329	-0.192305	-1.519149
-3.947198	3.225096	-2.387849	-0.694206	0.519080	-0.388530
-0.621304	-1.385306	-0.520806	-0.242151	-1.098541	-2.103319
0.571075	2.807452	-0.068460	-0.673836	-0.346781	0.419747
-0.802448	-0.165007	-1.386444	0.024491	-0.996990	0.528489
-0.069105	-0.682483	-2.968137	-0.719014	-0.098258	1.103035
2.025361	-4.638763	-2.092072	-0.263559	-0.683269	-1.254941
-1.194991	-0.631713	3.473207	0.624752	-1.254930	-0.168384
3.930993	4.540776	3.418871	0.229961	0.045152	-0.794241
-3.153411	3.376322	-3.185698	0.604183	0.344631	2.280876
-3.508579	6.003563	0.753899	-0.291048	0.633719	-1.446082
-1.789242	1.037258	1.381044	0.927562	0.487039	-1.079202
-3.129911	-3.587962	-2.444853	-1.740988	1.216058	-0.355753
-0.979369	0.305422	1.355172	0.124268	0.711801	0.250681
-0.965223	4.235361	-1.491441	0.794920	2.018564	0.328941
-0.494249	0.695859	-2.197782	0.723430	-0.665139	0.516529
2.729499	-0.046899	1.414380	-0.427915	-0.956928	0.111107
-0.114735	0.472280	4.440045	-1.613824	-0.811533	1.193942
-1.407137	5.303429	0.937221	0.529845	0.601510	-1.489453
-1.232000	-1.378255	-2.376276	0.268002	-0.661964	0.476944
3.448040	5.817860	1.573828	2.328244	0.012816	0.012184
3.254298	1.800946	3.152738	0.647254	-0.607732	-0.491332
-2.666248	-3.538673	6.805837	-0.093640	-0.797728	-0.054872
1.925835	-0.397785	-3.910588	-1.371671	0.152578	1.824822
4.501098	-1.106343	5.676647	0.667829	0.449609	0.871910
1.657107	2.806434	-0.585398	-1.169269	0.881050	1.731711
-4.859243	3.513697	4.239193	-0.625874	-0.466344	-1.251840
-5.139288	0.054752	-1.974580	-0.451493	-0.222423	0.723798
3.696338	1.687885	-0.928161	-0.181373	0.031183	0.363068
-0.994845	-0.423425	0.406479	2.105208	0.356536	0.364322
0.653400	4.024157	-1.518902	0.741994	-0.502635	0.449637
-2.538057	4.444346	1.670333	-0.205035	-0.026741	0.630310
-2.776776	5.369387	2.763843	0.915298	1.197283	0.211352
0.200394	8.424228	-1.291368	-1.716217	-1.112181	-0.368459
-2.147612	-2.508927	0.124743	1.700084	-1.443127	-2.443843
-1.813719	3.907158	4.449432	1.012447	-0.885239	-0.065960
1.191515	-2.337124	-3.521801	0.581026	-1.595328	-1.784591
0.369437	0.403275	-0.189025	0.856680	-0.287623	-1.065617
3.573131	0.680144	-4.397832	-0.920512	2.742152	-0.231352
-3.108849	-0.195267	-1.630261	0.605020	-0.221859	-0.560080
-5.508063	-7.755130	-4.558988	0.292707	-0.532395	-0.985929
0.957102	-0.170263	3.747896	1.422327	1.432425	-1.458087
7.490171	-2.741481	-0.987388	-1.505387	-1.544698	0.025470
4.125635	-3.747587	-3.416879	0.129283	0.837389	-3.440468
-0.546131	-6.545352	-4.070119	0.796660	0.108265	-0.597502
0.406126	1.470940	-1.543806	0.566292	-0.344979	-0.141308
1.070040	-2.959131	0.417533	-0.205181	0.740636	0.690452
-2.056963	-4.577985	3.393766	-0.616701	0.439355	-1.121767
-9.926761	0.123496	3.075283	1.383345	-1.481032	1.632610
-1.954071	6.109128	1.581724	0.321228	-1.496630	0.325305
-0.722333	4.947137	2.397096	-0.242794	1.602916	0.344462
2.247833	-0.591575	-2.513906	-0.184616	-0.550253	-0.491929
0.235074	-5.215532	-2.450112	0.516567	-0.172994	-0.844694
-2.781807	-0.242821	3.707107	-0.621767	-0.600450	0.723769
-4.656246	7.077907	0.810650	0.469980	0.816880	0.120423
-5.824407	-1.618252	-5.517423	1.001376	-0.149446	-0.655859
0.126863	-4.065754	3.839997	-0.364712	0.354080	1.321488
4.756632	-3.187272	0.629689	0.083991	-0.998622	1.141602
-3.505725	-0.484684	1.819218	-0.273271	-0.937765	-0.011999
1.056771	1.931430	-0.576088	-1.010184	0.515275	-0.899233
2.828349	-5.949420	-0.578979	-1.332038	1.749064	-1.426123
1.684375	-4.635603	3.793180	0.703866	0.033887	0.600368
-3.804727	-5.983718	0.706721	-0.483511	0.728700	0.329144
5.910632	7.311613	1.842729	1.779401	-0.907178	0.609887
1.440488	5.521297	-1.664527	-0.307086	0.630415	-1.121497
5.274780	2.716022	2.439797	0.937062	-1.352357	-0.591747
1.462647	5.842338	-4.647886	2.015573	-0.295914	0.253011
3.597732	-1.586294	-2.721067	-0.121446	1.209257	-0.779664
-0.384195	0.189481	2.263626	-0.139318	0.257720	0.854840
-0.349883	-4.880325	4.369598	-0.083530	0.214863	0.934647
2.857435	-2.998020	-4.990423	0.361598	1.642280	0.385296
-1.856419	0.057901	-1.618549	-0.237979	1.729393	-1.408795
6.225774	3.292527	1.276829	0.488743	0.048060	-1.103017
-1.964769	-5.438059	7.101622	-1.245418	-0.235814	0.972540
2.028769	3.897874	4.956999	-2.026214	-0.170935	-0.949758
-1.538033	3.877564	-0.643074	0.047264	1.186097	-0.498700
3.855124	-0.305226	-2.726249	0.998929	1.273541	-0.046108
-2.491678	0.426913	1.929210	-2.439125	0.538789	-0.131268
-8.356259	1.177743	1.636024	1.077770	-0.940462	0.032651
-0.856352	-3.592016	0.142925	-0.915768	-0.610196	0.425645
1.517796	0.761335	-4.710942	-0.146544	1.368537	0.179706
-1.007986	-0.809133	-6.291834	0.539093	1.097900	-1.910752
0.477106	2.319205	3.998587	-0.391238	-0.493841	-0.937436
0.582255	1.372280	-5.328283	0.323320	0.153907	0.325558
3.458584	2.008554	-3.050373	-1.747841	-0.223182	-0.122749
-0.035608	-6.210334	-2.461465	-1.723961	1.901882	0.512373
0.312183	2.548068	-1.152513	-0.923373	0.875013	0.130842
3.398198	-3.034175	-3.776079	0.138850	-0.367528	0.932670
-1.587452	1.067166	6.282799	0.615698	1.443966	-0.800931
5.612005	0.803840	0.394301	-0.501027	0.889803	-0.473015
-0.024117	4.896272	-3.432309	-1.314480	-0.306628	-1.037696
-5.149410	0.325724	-5.512681	-1.973721	-0.247155	0.601054
2.213057	5.774943	1.447419	-0.287616	-0.441473	-0.854855
0.920223	-4.241175	5.129717	-0.316433	-1.784989	0.798342
-1.421624	3.842997	2.454464	1.030996	-1.530022	0.324816
4.012636	5.239768	-2.218880	1.048638	0.827609	-0.636155
-3.675072	-1.354571	1.388908	-1.241451	0.349889	0.129997
-0.558027	4.879961	1.319915	0.535570	-1.745440	-0.404329
6.982593	-3.362712	-2.315191	0.068175	0.948275	0.740301
3.113208	1.022062	-2.326677	1.109349	-0.098893	-0.628989
-2.016748	-3.595200	-2.483655	-0.067458	1.227202	-0.330106
1.359338	0.572184	-3.232328	1.723232	0.537695	0.368757
3.343659	3.581097	-1.432726	1.744559	1.146065	1.447312
1.733850	0.375501	-2.084099	0.082051	-0.256163	-0.333007
-1.768237	-5.509291	2.893310	-0.668087	0.758633	1.016951
-0.581406	0.852068	0.457579	-0.780077	0.391282	-1.190818
-4.749351	-3.320741	2.093750	-0.805301	0.759323	1.434527
-4.870281	-5.434579	-1.705422	-1.354278	-1.477416	-1.654214
-0.129340	4.153898	-0.738131	-0.227124	1.275707	-0.664368
-1.721157	-0.837455	-0.834636	-0.582752	-0.618682	0.053348
0.397951	-1.887911	2.680838	-0.303610	0.695577	-1.748511
5.043410	-0.292845	-0.488041	1.998062	-0.698818	0.994917
0.843163	-0.298976	-1.023092	-0.340496	0.006458	-0.352286
3.358284	-0.734687	1.968591	-0.472689	-0.541777	1.567584
-2.018210	-0.404012	0.381500	-1.271201	-0.254382	0.177355
-2.877104	-4.573002	-1.929262	0.439500	0.427546	0.353728
-3.595074	-1.107736	3.497919	-0.250413	1.393864	1.290387
-0.239507	-2.135591	9.507044	2.600623	1.304584	0.303607
-2.042830	1.415746	-0.770486	1.903614	0.540541	-1.546008
-1.837729	3.520322	-1.673668	-0.227144	-0.889635	-0.307719
1.699602	-0.415338	-5.544498	0.705959	-0.344826	0.855195
3.182381	1.807403	-7.042927	0.391535	-0.878625	0.758250
-2.123096	-1.935758	3.311050	-1.294384	-1.147405	0.703985
0.604355	-2.871764	1.363309	0.940211	0.279092	0.091074
3.882465	7.952282	-6.901515	-1.064857	-1.080959	0.359457
-2.764625	1.895181	1.832350	0.228783	-0.182137	0.774590
3.265561	-1.745109	-1.520969	-1.183134	-1.462382	-1.226741
-0.818278	2.954609	-0.475998	2.606957	0.110348	-1.023792
-2.115569	1.168546	2.635825	-0.417328	1.318226	1.796651
2.401251	5.772625	-0.809489	1.356807	0.097916	0.780679
-1.965044	3.281511	0.046951	0.448210	-0.312300	-0.099949
-0.080409	0.619427	3.120723	0.092367	0.253545	-0.368627
-2.716856	0.807225	-1.124442	0.457989	-1.128870	-2.331257
0.869950	1.551879	-3.061890	-0.214405	0.324934	-0.717865
-0.927452	-3.563434	-3.295089	0.455194	0.758933	-0.255768
4.165716	-2.195114	-3.993601	-0.022747	-0.647498	-0.192759
-1.856372	-3.698900	0.839350	0.890877	-1.918297	-1.169269
-1.980207	0.295841	7.538526	-1.619839	1.883843	-0.532905
0.488619	-1.299381	-0.974072	-0.311815	0.687786	0.149578
-7.838584	-1.989926	-3.680506	0.243728	0.247894	-0.488153
-2.583813	-3.834963	3.794910	0.229141	-0.432794	-0.560879
4.788162	2.551479	-1.418294	0.878587	-0.153176	0.465462
-3.217784	-4.587981	-4.567653	0.682541	-1.359834	-0.416246
0.492959	-2.413597	-0.935481	-0.630197	-2.028241	1.962407
0.678789	7.902908	-3.233207	-1.171933	0.753001	1.551751
1.025679	4.015623	2.935471	-1.111281	0.939465	0.328609
3.035009	-5.000887	-0.086875	1.400692	-1.703875	1.249021
2.682170	-2.760821	-1.546961	0.072415	-1.413506	1.421596
-1.230003	-2.381012	4.871150	0.825869	-0.533197	-0.268718
-1.871209	-2.823529	4.162168	-1.062894	-0.889973	2.283049
-0.913910	-4.990126	2.691116	1.258037	2.092409	1.315123
-5.861851	0.864166	1.404769	0.408701	0.113875	0.711052
-3.030307	-1.381329	4.347005	-0.316042	-3.322417	1.102584
1.856719	-0.705369	-1.376632	-0.703826	-0.072794	0.704465
-3.424401	-6.497286	-4.316580	0.520052	-0.679058	-0.674534
0.510691	-1.817593	0.269374	-1.870082	-0.912575	0.969871
-0.881548	1.958714	-5.572039	-1.066326	-0.475047	-1.261423
-2.838083	5.354839	1.340278	-0.478969	-0.495175	1.068701
-3.121601	0.519099	3.087154	-0.250776	1.110746	0.067999
0.732275	-0.200291	-2.116060	-0.804074	1.112121	1.292178
-1.362445	0.967207	3.611588	0.423282	-1.605687	1.660233
-0.567562	-2.180649	0.418314	0.001018	0.000070	0.215224
0.691983	6.214162	-2.434062	0.494322	1.080427	-0.710064
3.825355	0.578804	-1.359553	-0.876963	-0.562926	-0.429649
1.028820	-4.458015	1.045648	1.693327	0.737514	-0.072691
2.674919	0.155561	-0.245408	-1.222504	1.470309	-0.085971
1.334140	0.812771	2.271623	-1.276446	0.593840	-0.019454
-6.120571	1.507955	-1.486861	-0.202430	0.268875	-0.837165
2.941571	-0.042373	-3.720102	-1.043232	0.170781	-0.724711
256

1.111191	-0.375754	-7.503252	0.793102	1.451170	0.620002
-0.926524	-1.863313	-4.427963	-0.518258	-2.726555	-0.712560
-4.298868	-1.005168	-1.150559	-0.739557	-1.746573	-0.213816
-1.245414	-5.630562	4.386234	1.797221	-1.185253	0.521361
2.011591	1.736883	-3.965888	-1.749980	0.009212	-0.328097
-2.873876	0.407507	-2.472007	0.333065	-0.091150	-0.673446
0.025022	-1.022694	0.962048	0.268710	1.404768	-0.873119
3.114244	6.167512	0.306666	1.341302	-2.755853	1.647608
0.968389	2.588169	0.973211	0.351193	1.402328	0.340866
-3.753090	-8.465401	4.496692	-0.306928	-0.700051	1.043424
6.901308	-4.522039	3.647915	0.438234	-0.769199	-0.192413
-2.524003	-2.539528	-2.673792	-0.710600	-2.587305	2.230373
2.436953	2.982756	1.049673	1.424777	0.717876	0.357961
2.638480	1.159780	-3.269898	0.877831	-0.653634	0.502260
-0.679352	-1.762292	2.447713	-0.036391	1.508528	-0.245373
-1.035348	1.079162	-0.526199	0.299672	0.291393	-0.107695
4.906225	-2.862963	4.077283	-1.380553	0.073803	0.357821
0.004355	3.786185	2.580516	-0.170674	0.299802	1.473925
1.548845	0.048473	-0.375051	-0.648918	0.435640	-0.662484
2.336915	1.798176	-7.855189	2.017864	0.460935	-0.711201
1.499996	-3.820431	-2.155317	0.132802	-0.623007	0.741716
-0.024203	-3.034020	0.363086	-0.624397	-0.938251	0.519679
-0.473120	1.419906	-1.354338	0.664157	-0.734658	0.698390
0.104461	3.763427	0.460229	0.200068	1.866538	-0.157230
4.260196	0.759484	7.695575	0.055241	0.208550	-0.313932
1.026874	0.839956	-0.935971	0.630074	-1.307604	-0.628336
1.596843	4.025807	0.031400	-0.004446	1.631445	-0.068036
4.071099	-0.668847	-5.254140	0.071501	-1.007373	-0.080669
2.230072	-8.536629	-7.540080	0.205518	-0.855720	0.330335
-3.033133	-1.672784	2.273456	-2.096056	0.618552	-0.194499
0.093345	-8.816944	2.277158	-1.453207	0.496791	-0.072424
2.938326	-2.260240	-3.011234	1.616720	2.201241	3.366242
2.784003	5.103258	0.914316	-1.031987	-0.953812	0.205687
-3.686280	1.538332	2.663003	-1.335105	0.237877	1.464207
-3.364097	1.014002	1.076143	1.378457	-0.214127	-2.098820
3.058840	0.968678	-7.716734	-0.582848	1.747048	-0.820613
-8.544615	4.841088	3.553863	1.272094	1.298657	0.005281
-5.577675	2.263625	3.265206	-0.972562	-2.125701	-1.649912
1.001105	-0.983902	4.224303	0.056030	0.527119	-1.078478
5.019606	2.993220	-0.074276	-0.885769	0.804127	-0.226202
-1.719499	2.394585	5.936093	-0.491357	1.402179	0.255196
8.230443	-3.713038	-2.720093	1.340337	-0.618560	-1.617748
0.485286	-2.908363	2.471604	0.848288	-0.366423	0.560082
-4.024868	-1.783864	2.582347	-0.049860	1.017495	0.366254
-3.124436	-5.659932	-2.699591	0.676313	0.414920	1.844432
-1.557855	4.447638	3.413655	-1.855681	-0.121373	0.700609
-3.836329	1.745461	1.621736	-0.359759	1.302002	-0.299642
-3.211535	-0.579605	0.767364	-1.504436	-0.795133	1.212934
0.594952	-2.798184	-4.531816	0.651766	0.477937	-1.321900
-3.924581	-4.959801	4.340056	-0.366762	2.640097	1.582453
2.134711	6.321359	-2.230512	0.523899	-0.068806	-0.582709
-2.463869	1.031498	3.991895	-0.981169	0.241965	0.153608
2.686082	4.121737	-1.918265	-0.038345	-0.699349	0.096210
1.706002	-1.685163	0.344364	0.019648	-0.927446	-1.224651
1.601821	-2.216521	2.244509	0.061655	0.523722	-0.884525
0.061462	1.868825	0.886915	0.498649	-0.020499	0.847275
2.016954	-0.991147	1.688411	0.312944	0.417369	0.256960
0.676305	0.903320	-2.470721	1.174410	1.194054	-0.715650
0.158510	-0.963283	-4.433679	0.237176	0.600361	-0.244587
0.209258	3.108394	1.375574	0.707721	1.438318	-1.473783
-0.033860	5.165890	-1.811103	-1.348565	0.893248	1.054550
2.217741	-1.347348	-3.621877	-0.255418	0.655834	0.135861
-2.733820	-5.921458	-4.589917	-1.792093	1.408099	0.560499
0.091158	1.509605	-0.279668	0.626206	0.281976	-0.796936
-1.787586	-1.443271	0.664901	-0.756324	0.325344	0.147343
1.995522	-3.372120	-3.990699	0.725516	0.383339	-1.192364
1.950771	1.532689	-5.479464	0.077722	-0.601901	-0.635254
4.240633	-7.206613	-3.409652	1.031825	-0.181553	2.272902
1.451494	2.440709	-5.398828	-1.150159	-1.152194	-0.081954
2.717016	1.145215	6.953353	-0.620049	1.346763	-1.272090
1.225123	2.584713	-1.953102	-0.866886	-0.499510	0.212436
-0.847442	-5.110772	-1.563241	0.163494	-0.804644	0.901661
3.577817	-0.239610	-0.198305	-1.824407	-0.028254	-0.087836
-5.493483	5.658572	-3.941627	-0.497603	-0.729806	0.227401
1.934768	2.618147	4.957908	-0.272577	0.472800	-0.307355
1.925934	1.615437	-2.602968	0.232472	0.704128	0.901860
0.200485	-4.865482	3.632091	1.902378	0.805529	1.793716
-1.706557	-9.483928	4.536904	0.937596	-2.384821	0.771414
-1.832873	-3.048318	-5.528532	-0.335192	0.219884	0.103009
0.999707	-1.411866	-4.727128	-0.392563	-0.636794	1.073636
0.049754	-0.774132	-0.211465	-0.325516	-0.125930	-0.373930
-5.007020	3.326220	-2.660648	-0.276748	-2.273721	-2.289570
-0.853540	3.285773	0.586410	0.832503	0.661421	-0.936518
2.786207	-0.740666	2.978572	1.201547	0.079399	0.873062
0.116945	0.122014	0.825140	1.424927	0.583371	-0.086027
-2.709400	-4.257504	0.590193	0.796718	-1.153856	0.393127
1.091017	-0.224769	1.690350	-0.073301	-1.061343	-0.331559
2.808596	-4.583105	-5.631873	1.801318	-0.091205	-1.370058
-3.926172	3.253832	-2.400831	0.585182	-0.165513	0.268184
-0.656520	-1.588261	-0.869740	-0.451666	-0.985730	-1.397576
0.422506	2.651689	-0.022704	-1.625933	-0.263821	0.956741
-0.886680	-0.383724	-1.259464	-0.863676	-1.305451	0.679646
-0.354172	-0.853916	-2.691212	-1.310170	-0.867457	1.425938
1.994911	-4.745174	-2.271956	0.600155	0.116804	0.209707
-1.020975	-0.665692	3.400155	1.931134	-0.074729	-0.354102
3.933197	4.631437	3.121136	-0.425834	1.122166	-2.246122
-2.996154	3.562834	-2.897546	1.008474	1.102492	-0.661047
-3.505849	5.857485	0.271553	-0.061045	-0.659522	-2.158497
-1.690872	1.185257	1.175380	0.139009	0.917439	-1.014189
-3.398980	-3.494315	-2.563316	-0.714658	-0.291719	-0.834491
-0.950791	0.372069	1.296764	0.009496	0.392100	-0.459803
-0.892736	4.178430	-1.546957	0.064865	-1.295251	-2.083877
-0.600446	0.620608	-2.210901	-0.995293	-0.108589	-0.998093
2.640323	-0.284876	1.336812	-0.115938	-0.789722	-1.034964
-0.519156	0.404667	4.639254	-1.842854	-0.198322	1.090517
-1.455784	5.314760	0.747070	-0.824676	-0.784312	-0.379807
-1.165254	-1.527815	-2.341678	0.413571	-0.896803	-0.130075
3.787549	5.621605	1.640466	0.814498	-2.563387	-0.050959
3.339570	1.961291	2.918994	0.734170	1.979089	-2.114540
-2.612403	-3.751342	6.758111	0.915947	-0.581055	0.281492
1.739797	-0.296144	-3.476931	-0.445747	1.529791	1.829407
4.562672	-1.060904	5.773691	-0.742362	-0.955628	-0.733049
1.487655	2.945288	-0.245328	-0.581264	0.227944	1.596423
-4.996607	3.419889	4.021867	-0.805573	-0.509180	-0.883075
-5.216505	0.024333	-1.776003	-0.875825	-0.237420	0.796492
3.744036	1.619182	-0.891888	0.108188	-0.618442	0.190535
-0.730823	-0.319019	0.439083	-0.345186	0.476572	-2.158359
0.761680	3.934445	-1.501317	-0.145117	-0.645053	0.177863
-2.485881	4.282169	1.793283	0.634044	-0.868505	0.434742
-2.732412	5.348946	2.671353	-0.500867	-1.170493	-0.064622
-0.070434	8.437396	-1.180546	-0.379577	0.674464	1.685921
-1.798486	-2.825888	-0.339647	1.977973	-1.886466	-2.319618
-1.808386	3.675889	4.454366	-1.279840	-1.164167	0.252045
1.277416	-2.654711	-3.741796	0.223918	-1.344508	0.276979
0.432119	0.281358	-0.234546	-0.655378	-0.720331	1.419198
3.364267	0.906172	-4.420885	-0.973199	-0.589559	0.816398
-3.033169	-0.340942	-1.634134	0.595821	-0.644477	1.258121
-5.762519	-7.774234	-4.546448	-1.690893	0.035525	0.605529
1.089826	0.049748	3.403543	0.399260	0.429819	-1.675196
7.239811	-2.716582	-0.810254	-0.806482	1.347069	1.613738
4.363641	-3.767911	-3.903510	1.560101	-0.847646	-1.160786
-0.280765	-6.479399	-4.144844	0.079558	-0.139853	-0.002537
0.528134	1.681083	-1.725868	0.220683	2.121301	-2.464473
1.148873	-2.790209	0.381945	0.738844	0.736054	-0.621792
-2.116183	-4.480855	3.152429	-0.365474	1.074365	-1.049375
-9.910030	0.001763	3.301925	-1.691071	0.545034	0.386171
-1.850455	5.793219	1.738021	1.056857	-1.350036	1.034559
-0.659480	5.191697	2.490166	0.852585	0.021072	0.511157
2.150624	-0.707343	-2.660347	-0.335270	-0.263385	-0.470111
0.245255	-5.269645	-2.519296	-0.903645	-1.939623	0.695359
-2.761571	-0.370325	3.799062	0.053818	-0.495764	0.409154
-4.762297	7.047199	0.812634	-0.802615	1.170636	0.865357
-5.463643	-1.624469	-5.452947	2.450085	-0.275978	0.726111
0.144285	-3.969446	4.158995	0.048749	0.981041	1.815566
4.587688	-3.098400	0.769297	-0.920832	0.992549	0.952541
-3.285149	-0.326130	1.852435	1.113653	-0.374721	-0.827941
0.925202	2.006794	-0.812428	0.392646	-0.017051	-1.375954
2.411228	-5.652351	-0.898590	-2.254895	1.139925	-1.768952
1.796597	-4.610879	3.875427	0.649569	-0.531274	-1.241735
-3.810687	-5.827820	0.618100	0.038301	0.774942	-1.078673
6.180507	7.124389	1.948708	1.210127	-1.111447	0.408651
1.304028	5.560358	-1.861153	-0.892542	0.027188	-1.011897
5.355493	2.695988	2.498187	0.302829	0.089688	0.357555
1.659554	5.769164	-4.697981	0.247368	-0.483416	-1.409111
3.560482	-1.363988	-2.858543	-0.121900	1.071474	-0.575489
-0.436853	0.080072	2.234724	-0.170563	-0.717720	-0.228421
-0.316632	-4.927066	4.680419	-0.095584	-0.130553	1.079198
2.950492	-2.709092	-4.813694	0.727000	1.353731	0.985079
-1.844317	0.242154	-1.851269	0.961871	0.275020	-1.149679
6.024004	3.208311	1.310054	-1.532666	-0.604712	0.714138
-2.197720	-5.339746	7.262663	-0.743797	1.820587	0.940230
1.803447	3.716023	4.808204	0.460016	-0.103600	-0.131328
-1.676508	4.053404	-0.606897	-1.425507	0.546263	0.794541
3.986807	0.014407	-2.560831	0.294679	2.106144	2.186527
-2.964420	0.610957	1.952168	-1.488734	2.400586	0.806105
-8.103884	1.020614	1.631667	1.417144	-0.730866	-0.074925
-0.844017	-3.686930	0.141471	1.755920	-0.088401	-0.794504
1.509220	1.077043	-4.599656	-0.114545	1.944461	0.548602
-0.791753	-0.700137	-6.593856	0.506603	-0.475304	0.842616
0.477313	2.150026	3.903092	0.952749	0.200884	-1.104332
0.541446	1.564934	-5.165672	0.014571	1.221886	0.981264
3.224597	2.165569	-3.005164	-0.939169	1.351833	0.299750
-0.449378	-6.065181	-2.326383	-2.120729	0.266413	0.841923
0.213968	2.631425	-1.318183	0.689362	-0.343385	-2.480668
3.362267	-3.102759	-3.776863	0.181884	-1.194218	-1.200009
-1.367088	1.315945	6.037124	1.119496	0.860593	-1.613631
5.454089	0.963066	0.405856	-0.878118	0.634515	0.288049
0.018152	5.064907	-3.567958	0.530322	1.189057	0.400750
-5.412485	0.266571	-5.779245	-0.847032	-0.774525	-0.351805
2.100350	5.812223	1.333932	-1.029962	1.112677	-0.411311
0.940844	-4.414948	5.286063	0.222498	-0.468030	0.573129
-1.470761	3.874850	2.340620	-0.566390	0.653083	-0.740113
4.125313	5.509564	-2.365887	0.013514	2.121695	-0.831792
-3.958649	-1.149357	1.467692	-0.148713	2.002174	0.231321
-0.415317	4.514174	1.283605	0.633863	-1.789734	-0.065468
6.942684	-2.896975	-2.304621	0.012603	1.395844	1.337320
3.377511	1.016214	-2.304342	1.184842	-0.032930	0.159634
-2.159497	-3.443718	-2.583235	-0.984855	-0.423859	0.556083
1.795157	0.724821	-3.199134	0.573634	-0.383306	-0.209430
3.677989	3.779503	-1.208953	1.568365	0.867077	0.651335
1.713437	0.334768	-2.151028	-0.324642	-0.192895	-0.269984
-1.664965	-5.652909	3.103499	1.568346	-1.366072	0.955158
-0.716724	0.810565	0.409881	0.088175	-0.661331	1.134604
-4.817392	-3.199057	2.153817	-0.079125	0.645915	-0.213713
-5.159386	-5.712539	-2.050720	-1.798120	-1.310430	-1.667868
0.063313	4.331619	-0.600549	1.323313	-0.098015	1.483421
-1.805699	-0.857069	-0.789693	-0.011820	0.163550	0.286598
0.426557	-1.860936	2.525527	1.361624	-0.236879	1.388459
5.334169	-0.404065	-0.418053	0.419102	-0.297093	-0.374721
0.788700	-0.310965	-0.988028	-0.510975	-0.305911	0.576410
3.161274	-0.959914	1.974246	-1.340548	-1.514104	-0.957962
-1.949425	-0.423655	0.390254	1.746875	0.198792	0.386014
-2.906948	-4.440565	-1.876686	-0.545749	-0.018030	0.904092
-3.592996	-1.148675	3.601211	0.408131	-1.790178	0.482814
0.145703	-1.972266	9.488344	0.594274	0.458328	-1.625318
-1.895204	1.710615	-1.035701	-0.516728	1.396181	-1.746274
-1.778521	3.377439	-1.666388	0.014251	-0.231194	0.424510
1.855919	-0.446296	-5.281355	-1.141939	0.345189	0.681516
3.140170	1.631132	-6.891700	-0.355590	-0.544169	0.921128
-2.247802	-2.018889	3.689686	-0.374349	-0.192587	2.621816
0.734136	-2.837005	1.422704	0.929219	-0.352445	-0.283964
3.784145	8.019018	-6.778349	-0.088553	0.843616	0.790675
-2.707285	1.562537	1.794668	0.349151	-1.939953	-0.240439
3.087857	-1.838612	-1.850063	-0.118775	0.883947	-2.121031
-0.417986	3.109691	-0.539149	0.663241	1.910338	1.281518
-2.197461	1.339844	2.951392	0.721460	-1.202564	0.047571
2.451395	5.968541	-0.538158	-0.651495	0.748606	0.445059
-1.762576	3.208557	0.120199	0.532936	-1.067269	-0.260157
-0.017974	0.704596	3.310650	0.436030	-0.386862	0.950760
-2.799007	0.746163	-1.542642	-0.968614	1.789447	-0.269310
0.791959	1.696326	-3.255375	0.154726	0.205574	0.135826
-1.006467	-3.513555	-3.501426	0.221238	0.260972	-1.150748
3.939223	-2.258870	-4.099523	-1.949888	-0.168375	-0.985467
-1.812828	-3.863095	0.628213	0.064050	0.846383	-0.039522
-2.110915	0.611545	7.351831	-0.040248	1.465018	-1.121097
0.390416	-1.372597	-0.929197	0.260354	-1.844847	-0.866063
-7.794426	-1.920360	-3.813396	0.419929	0.727546	-0.943013
-2.641257	-3.712982	3.803220	0.779938	-0.774364	-0.321091
4.971558	2.509593	-1.303424	0.634844	-0.110796	0.265517
-3.106824	-4.942788	-4.624191	0.377906	-1.734783	0.109409
0.400512	-2.763540	-0.475042	-0.030467	-0.894142	1.498317
0.663870	7.993866	-3.035507	0.450484	0.116330	-0.240554
0.746845	4.229828	3.070873	-0.989158	1.443684	1.488909
3.295466	-5.344617	0.214726	1.086674	-2.029791	1.652856
2.755185	-2.838299	-1.369219	-0.146981	-1.164301	1.014802
-0.987604	-2.355682	4.740771	1.301006	1.159366	-2.147674
-1.989597	-3.144891	4.516068	-0.697035	-1.278888	0.283996
-0.775864	-4.991990	2.717727	-0.817625	-1.150328	-1.171396
-5.785103	0.904549	1.566301	0.098006	0.777811	0.148189
-3.181722	-1.855212	4.449381	-0.507449	-1.829076	0.467030
1.751679	-0.684989	-1.301573	-0.128209	0.233508	0.024934
-3.590813	-6.735165	-4.278880	-0.780729	0.235056	-0.969844
0.401642	-2.067501	0.304477	0.495131	-0.310137	0.116313
-1.107036	1.857699	-5.808029	-1.230697	-0.486184	-1.062934
-2.916211	5.549273	1.671464	-0.969656	0.412612	0.903422
-3.052408	0.554925	3.077337	0.985179	-0.493948	-0.453298
0.579102	-0.084871	-1.985316	-0.847024	-0.191095	0.556425
-1.182356	0.611838	3.854820	1.407604	-1.341227	1.225254
-0.716066	-1.903262	0.449037	-0.920596	2.292536	-0.003130
0.825597	6.428989	-2.616879	0.812326	1.125817	-1.110204
3.659289	0.453760	-1.399663	-0.391000	-0.457034	0.289337
1.323890	-4.386106	1.011480	1.163773	0.066594	-0.189443
2.490283	0.328622	-0.263841	-0.253315	0.026085	-0.696988
1.238739	0.742126	2.107227	-0.183301	-0.134664	-0.431952
-6.206962	1.553096	-1.617382	-0.764873	0.204002	0.303759
2.930802	-0.039227	-3.579400	0.097564	0.109030	1.152024
256

1.218968	-0.161175	-7.357257	0.635290	0.729798	0.453451
-1.065879	-2.351125	-4.655043	-1.478609	-1.756221	-2.026495
-4.299754	-1.140253	-0.949629	1.550765	1.259557	3.750259
-0.870086	-5.812566	4.473964	1.387608	-0.046081	0.965417
1.771040	1.839805	-3.691781	-0.491009	-0.230672	-0.027267
-2.775733	0.278969	-2.644353	1.385081	-1.270903	-0.055989
0.244263	-0.812608	0.727286	1.205191	0.476344	-0.436884
3.377223	5.610675	0.659939	1.592816	-2.428410	1.843589
1.138063	2.610541	0.942759	0.221035	-0.779570	0.889509
-3.707090	-8.508710	4.659723	1.502984	0.955170	0.247508
6.989410	-4.642462	3.630006	0.360032	-0.368904	-0.088458
-2.877060	-2.685429	-2.351162	-2.048028	-0.471866	1.170710
2.696379	3.103441	1.107237	1.091778	0.562408	0.333639
3.058654	1.099472	-3.217803	1.426755	-1.868281	-0.111928
-0.778122	-1.542040	2.422588	-1.233848	-0.242653	0.319765
-1.060561	1.097424	-0.561495	-0.003980	-0.047774	-0.280634
4.694397	-2.968468	4.041430	-0.707100	-0.709283	-0.497628
-0.224113	3.778451	2.812478	-1.493501	0.051267	1.348402
1.460921	0.014377	-0.389023	-0.132554	-0.519943	0.011379
2.447672	2.066572	-8.139271	-1.274130	1.188219	-2.480666
1.663697	-3.711236	-2.024823	0.574454	0.599333	0.428648
-0.035292	-2.915322	0.639804	0.347358	1.887174	1.157185
-0.287372	1.506747	-1.402472	0.834352	0.869741	-0.840792
0.351746	4.035732	0.446307	2.035881	1.448836	-0.592850
4.263260	0.741039	7.668397	0.163564	-0.560919	0.231112
0.988789	0.720467	-1.237124	-1.067904	-0.595866	-1.978250
1.539878	4.330026	0.005828	-0.446386	0.451750	-0.381498
4.072448	-0.683139	-5.358776	-0.169166	0.961608	-0.008380
2.143822	-8.785864	-7.740427	-0.459932	-1.220917	-1.224128
-3.230584	-1.329505	2.253331	-0.280676	0.991051	-0.067642
0.099412	-8.881162	2.267973	1.849409	0.221587	0.046024
3.091228	-2.210583	-2.933360	0.035006	-0.635673	-1.535095
2.593940	4.945990	0.991460	-1.220821	-0.737926	0.700002
-3.735607	1.552582	2.607699	0.248629	0.362690	-0.855426
-3.533090	0.975282	0.915472	-1.691490	-0.059295	-0.180849
3.248440	1.107136	-7.870144	1.753591	0.088750	-0.805815
-8.215526	4.996983	3.574602	2.293694	0.101004	0.294253
-5.768542	2.052053	3.045780	-0.664414	-0.104378	0.024976
0.938457	-0.871932	4.252478	-1.060670	0.239281	0.054112
4.724717	3.038849	-0.199491	-1.541967	0.030800	-0.848011
-1.791484	2.537016	5.886950	-0.076459	1.259768	-1.178336
8.387156	-3.572031	-2.631793	0.907092	0.996663	1.691742
0.572644	-3.054387	2.301801	0.217468	-0.824424	-0.579712
-4.281710	-1.795153	2.735008	0.475048	-0.711587	0.916225
-2.985707	-5.482350	-2.321543	0.927322	1.022014	0.699198
-1.536206	4.523434	3.501118	1.306881	0.324574	0.111399
-3.888878	1.976261	1.601655	-0.128280	0.933913	-0.143645
-3.408398	-0.654417	0.688329	-0.700713	0.021768	-1.313672
0.681844	-2.446339	-4.523777	0.925457	0.542271	-0.408293
-4.053983	-4.481228	4.715578	-1.424765	2.016765	1.469487
2.028571	6.175719	-2.385986	-0.736115	-1.065970	-0.925331
-2.663651	1.014000	3.986931	-0.281665	-1.090695	0.515410
2.734500	4.022985	-1.897486	0.766431	-0.093227	0.146870
1.611359	-1.764904	0.164520	-1.468037	0.947667	-1.001069
1.449121	-2.078646	2.122238	-1.006363	0.791881	-0.621899
0.174863	1.876164	1.006626	0.622680	-0.165984	0.625139
1.913057	-1.069437	1.813456	-0.897966	-0.835399	0.278478
0.953398	0.838938	-2.546928	0.064991	-1.158057	-0.045219
0.250931	-0.781555	-4.507700	2.011178	1.159322	-0.862641
0.203596	3.348198	1.263933	1.091262	-1.684067	0.797089
-0.215420	5.329315	-1.495700	-0.298934	0.916083	2.025871
2.124963	-1.202593	-3.574525	-0.634374	0.521989	0.332499
-2.912377	-6.135371	-4.503886	-0.383378	-0.734822	-0.574365
0.181712	1.492028	-0.431552	0.363865	-0.485524	-0.454260
-1.895514	-1.468631	0.761435	-0.410046	-0.227829	0.739013
2.213066	-3.439301	-4.275505	1.146807	-0.640033	-1.470938
1.962564	1.258030	-5.617319	-0.007254	-1.526450	0.050679
4.363234	-7.226222	-3.025839	-0.468101	0.676227	0.688646
1.232174	2.281189	-5.371587	-0.284894	-0.325818	0.128689
2.658362	1.380983	6.720656	0.321871	0.933457	-0.979047
1.307975	2.548903	-1.928162	0.271038	-1.306309	-0.033335
-0.842715	-5.275200	-1.364324	-0.793011	-0.373423	1.467632
3.298778	-0.282279	-0.178316	-0.290499	-0.880013	0.398900
-5.644506	5.604200	-3.778218	-0.687756	0.120310	0.976641
1.898912	2.711298	4.828971	-0.046977	1.917379	0.363557
1.782874	1.712013	-2.663761	-1.494836	1.726200	1.031619
0.537507	-4.679328	3.875011	1.752497	0.521840	0.851490
-1.607817	-9.797086	4.755562	0.016441	-1.002117	0.828191
-1.738682	-3.132145	-5.433816	0.248941	-0.131935	0.606369
1.206545	-1.541873	-4.572881	1.737455	-0.231625	0.410682
-0.030905	-0.880749	-0.291034	-0.879142	-1.881376	-0.751238
-5.153051	3.256222	-3.051144	-0.745921	0.918536	-1.004130
-0.645986	3.392869	0.622379	0.799680	0.517014	1.349425
3.089700	-0.604936	3.168758	1.374581	0.683357	0.658951
0.291923	0.146242	1.067878	0.431471	-1.267692	1.018917
-2.684906	-4.395664	0.702880	0.043412	-0.080498	-0.001349
1.042831	-0.475317	1.657861	-0.687592	-1.145150	0.383316
3.160786	-4.619765	-5.910958	1.717257	-0.243144	-1.451139
-3.846120	3.213018	-2.369070	-0.119115	-0.488980	0.779825
-0.755423	-1.596954	-1.166153	-0.305061	0.465710	-1.664217
0.167327	2.580361	0.214024	-1.010166	0.014409	1.072785
-0.849380	-0.537533	-1.190259	1.363126	0.001954	0.023835
-0.469393	-0.884863	-2.433274	-0.091124	0.438949	1.311462
2.112157	-4.851442	-2.095594	0.564390	-0.691946	0.297047
-0.868842	-0.625179	3.238137	-0.859772	0.650272	-1.495161
3.912745	4.915726	2.786801	0.795674	1.618356	-0.970283
-2.882081	3.726552	-3.130668	-1.205115	0.796548	-0.818073
-3.557367	5.762327	-0.123684	-0.459862	-0.488390	-1.685551
-1.651508	1.350426	0.989416	0.480021	0.623186	-0.860950
-3.518034	-3.496560	-2.734167	-0.563594	-0.007237	-1.004509
-1.066108	0.313827	1.366742	-1.021255	-0.181296	-0.537240
-0.880851	3.930744	-1.924275	0.062003	-1.223020	-1.742793
-0.649500	0.600748	-2.024045	0.465550	0.251284	2.953877
2.612311	0.038204	1.297967	-0.226416	1.854777	-0.427988
-0.630795	0.226371	4.818707	0.088236	-1.458467	-0.119587
-1.547796	5.330868	0.659627	-0.044626	1.528478	-0.443025
-1.158308	-1.771889	-2.351546	0.173997	0.487235	0.321651
3.911575	5.286285	1.711927	-0.626385	-0.473002	1.738107
3.396903	2.410007	2.470860	-0.094063	2.325314	-2.383683
-2.452467	-3.673814	6.812358	0.085563	0.876332	-0.146612
1.750188	-0.205576	-3.454777	1.620212	0.753345	0.051162
4.418634	-1.191661	5.615377	0.538737	1.544203	-0.047228
1.346902	2.983509	0.045627	-0.583216	0.712338	0.181374
-5.132182	3.325364	3.924420	-0.168075	-0.275092	-0.323964
-5.466737	-0.025152	-1.653077	-0.797624	0.139849	0.551310
3.699251	1.476224	-0.868913	-0.680818	-0.547797	-0.087536
-0.736091	-0.186031	0.033396	0.868432	1.258875	-1.930113
0.606763	3.719448	-1.439131	-0.440784	-1.197334	-0.524523
-2.404626	4.147604	1.819863	-0.280540	-0.331352	-0.223989
-2.995216	5.160420	2.841953	-1.478114	-0.949463	1.089241
-0.131489	8.417842	-0.925443	-0.788892	-0.279308	0.164822
-1.655089	-3.056608	-0.652953	0.095165	-0.694257	-1.115422
-1.957445	3.514308	4.427738	1.186260	-0.886433	-0.799881
1.280322	-2.812502	-3.619336	0.216355	-0.650659	0.510893
0.357338	0.243730	-0.024889	0.305591	-0.282054	1.185407
3.131667	0.779806	-4.218713	-1.272755	-0.785926	1.068382
-2.901749	-0.353816	-1.414296	0.430367	0.302237	0.104590
-5.975876	-7.714199	-4.335660	-0.616854	0.510204	1.042897
0.987014	0.199910	3.183144	0.132153	0.415965	-1.076667
7.484628	-2.554979	-0.474903	2.353731	0.377584	2.106303
4.360655	-3.962394	-4.094063	-2.164699	0.196512	-0.794695
-0.409579	-6.504370	-4.075925	-0.050909	-0.942493	-0.300537
0.513023	1.664930	-2.082395	-0.267924	-0.706147	-0.113199
1.352712	-2.748187	0.309335	0.527318	0.354029	0.090452
-2.160079	-4.449469	2.898954	0.070435	-0.100109	-1.297043
-9.992509	0.160019	3.349874	1.345891	0.111505	0.725734
-1.632191	5.688493	1.809233	1.166013	0.220623	-0.255525
-0.515630	5.200634	2.517326	0.536910	0.277327	-0.357597
2.225165	-0.681400	-2.535920	0.586898	0.662610	0.936920
0.196512	-5.443772	-2.699301	0.113812	-0.532908	-2.205739
-2.935159	-0.509780	3.943413	-1.184294	-0.663889	0.639577
-4.720419	7.083119	0.723790	0.483044	-0.046478	-0.825791
-5.300214	-1.815467	-5.325945	-2.800619	0.783295	-0.626489
0.012658	-3.781809	4.167499	-1.261353	0.593183	0.175281
4.479355	-3.007264	0.821609	0.214305	-0.526622	-1.991405
-3.024944	-0.391365	1.895998	1.473233	0.400052	0.691552
0.929505	2.117768	-0.940817	-1.251411	1.520896	0.257898
1.933349	-5.462327	-1.238873	-1.747986	1.041399	-0.219495
1.886125	-4.784924	3.529837	-0.209976	-1.076044	-1.653079
-3.483705	-5.840268	0.480961	2.257453	-0.564259	-0.423993
6.350829	6.828651	2.047072	-0.158708	-1.865195	0.650242
1.116310	5.588619	-2.087634	-1.048468	0.231083	-1.206103
5.514619	2.640708	2.485873	0.904555	-0.844809	-0.195891
1.813203	5.531638	-4.796679	1.134374	-1.634324	0.018796
3.478202	-1.096712	-2.940070	-2.352361	0.380619	-0.003682
-0.504552	0.144495	2.297405	0.231650	0.406450	1.349417
-0.382077	-4.842965	4.729494	-0.737063	1.358664	-0.755947
3.009275	-2.685349	-4.817210	-0.668294	-2.705427	0.264413
-1.674848	0.323239	-2.017196	0.394117	-0.086886	-0.475307
5.812820	3.098009	1.535621	-0.344319	-0.861530	1.851202
-2.248124	-5.013903	7.209702	-0.869110	0.424968	-0.335378
2.040131	3.815043	4.796161	0.875055	0.714918	-0.088149
-1.793442	3.794954	-0.357889	-0.061215	-1.452265	0.728846
4.157694	0.207110	-2.090173	1.683333	-0.427545	2.175754
-3.483407	0.689054	2.142995	-2.952363	-0.199163	-0.035356
-7.859635	0.933736	1.700325	0.669910	1.287277	1.951877
-0.844036	-3.703518	-0.136118	-0.740807	0.845050	-1.480712
1.326187	1.224051	-4.694862	-0.341746	0.246290	-0.391702
-0.748673	-0.758973	-6.408061	0.932061	-0.130520	0.003679
0.853082	2.281352	3.773790	2.507917	0.866200	0.442843
0.455607	1.617813	-5.109537	-2.179409	-1.181694	-0.814501
3.182865	2.077377	-3.252469	0.213224	-0.371790	-1.705687
-0.678384	-5.853467	-2.201697	-0.841330	1.124751	0.185725
0.245718	2.795847	-1.428617	0.119341	0.718668	0.550512
3.371931	-3.390096	-4.040318	0.079308	-1.421746	-1.507629
-1.575848	1.328303	5.871111	-2.028636	-0.161111	-0.562313
5.678967	1.056711	0.144040	1.651372	0.366550	-1.721602
0.263200	5.237735	-3.412330	2.811182	-0.002791	0.886326
-5.537314	0.059678	-5.539267	-0.275904	-0.524743	1.746070
2.003579	6.081201	1.106197	0.071549	1.131540	-0.671439
0.967167	-4.810373	5.382777	0.803372	-0.538500	-0.340970
-1.400632	3.901368	2.186969	1.863184	-0.888829	-0.804496
4.086995	5.898393	-2.576943	-1.576561	-0.308222	-0.444900
-4.028499	-0.977245	1.683398	-0.574451	0.160072	0.943305
-0.405290	4.144262	1.384949	-1.413752	-0.370556	1.090138
6.848718	-2.729121	-2.096334	-0.866454	-1.455400	1.231777
3.480382	1.160501	-2.265696	0.126761	1.433137	0.792624
-2.260033	-4.035410	-2.220167	-0.744788	-2.535632	0.919324
1.646295	0.893224	-3.270037	-0.406743	-1.012904	-2.812924
4.001778	3.935250	-1.152269	1.768272	0.640493	-0.051213
1.625852	0.249456	-2.178836	0.386499	-1.497457	0.407831
-1.404285	-5.902045	3.295139	1.133786	-1.249330	0.933924
-0.496916	0.842375	0.406583	1.646397	0.355352	-0.219287
-4.968217	-3.088424	2.150289	-1.950847	0.472893	-0.097201
-5.504163	-5.819772	-2.028711	-0.574709	0.077954	0.919825
0.339570	4.228561	-0.608095	2.207294	1.628525	-1.153526
-1.777074	-0.939510	-0.666145	-0.190325	-0.771173	1.201769
0.476046	-1.956949	2.564874	-0.697497	-0.312885	-0.603427
5.287635	-0.323070	-0.383888	-0.187595	0.826695	1.239192
0.596693	-0.488360	-0.974315	-0.252595	-0.491230	-0.888883
2.964547	-1.141044	1.815304	-0.921486	-0.611303	-0.484731
-1.728101	-0.308778	0.461627	-0.160740	0.498078	0.568522
-3.000415	-4.588722	-1.791983	0.433033	-0.073572	0.882031
-3.485687	-1.523642	3.708603	1.169711	-1.011326	0.070842
0.172543	-1.841062	9.363049	-0.282664	0.807567	1.085217
-2.002757	1.879849	-1.333437	-1.023838	0.202871	-0.124625
-1.844113	3.548651	-1.473878	0.884799	0.841691	1.021178
1.641290	-0.564093	-5.344773	-1.373931	-1.289294	-0.192087
3.100946	1.601892	-6.707573	0.361124	0.242495	0.669990
-2.426127	-2.190205	4.124430	-1.438143	-1.508228	1.588961
0.928153	-2.903794	1.262564	0.840472	-0.064161	-1.204993
3.789651	8.115276	-6.624153	0.194525	0.203888	0.745577
-2.438053	1.744828	1.652236	1.378823	1.517506	-0.617446
3.183770	-1.601065	-1.934508	-0.652661	0.226125	-1.847324
-0.398436	3.383773	-0.434791	-0.397511	-0.621474	-0.737615
-2.053678	1.127210	2.915454	0.680411	-0.406615	-0.271401
2.418989	6.090366	-0.542628	0.700858	0.422694	-0.758538
-1.659367	3.096792	0.338758	0.705050	-1.116825	2.993143
0.078831	0.488423	3.414116	-1.035443	-0.676785	0.703385
-2.982466	1.123361	-1.484511	-1.012126	1.820254	0.189413
0.907729	1.841463	-3.201833	-0.047573	1.357195	0.422007
-0.908817	-3.483991	-3.715935	-0.072949	0.420530	-0.423842
3.775993	-2.171228	-4.185535	0.077395	0.345596	0.791853
-1.607218	-3.799078	0.618834	0.908905	-1.295575	0.147060
-2.090747	0.873122	7.125143	0.252494	1.062709	-1.363745
0.493146	-1.792171	-1.137501	0.283914	-1.988601	-0.920570
-7.722986	-1.671776	-3.988531	-0.512428	1.865420	0.380641
-2.608172	-3.970543	3.791542	0.359900	-0.873759	-0.034279
4.995629	2.440748	-1.345279	0.086071	-0.908232	0.947729
-3.210587	-4.731397	-4.517585	-0.298804	0.828973	0.096025
0.543293	-2.640936	-0.505778	0.633112	0.502088	-0.465416
0.703881	8.005045	-3.106765	-0.361131	-0.024983	-0.161269
0.719143	4.345161	3.488894	0.685981	0.701024	1.280444
3.288588	-5.619483	0.548486	0.707708	-0.743881	2.300411
2.711080	-3.039044	-1.193851	-0.311276	-0.929531	0.766801
-0.634061	-2.272246	4.357972	1.054976	0.518253	-1.548187
-2.129553	-3.220152	4.431218	-0.692233	0.034540	0.071717
-0.975940	-5.192390	2.483458	-1.218246	-0.700029	-1.080472
-5.794408	1.063278	1.359485	-0.242532	-0.160681	-2.186039
-3.308423	-1.921087	4.704088	-0.072949	0.560659	0.978590
1.742815	-0.582608	-1.340486	-0.537333	0.581100	-0.187822
-3.697508	-6.791795	-4.174488	-1.175438	-1.074938	1.482131
0.432586	-1.884166	0.299261	0.346264	1.203798	-1.315204
-1.398914	1.765206	-5.993014	-1.717860	-0.393320	-0.700368
-3.028720	5.517546	1.678500	0.507990	0.320099	0.717210
-2.996439	0.492252	3.133360	-1.625721	0.104485	0.524257
0.386167	-0.020606	-1.964305	-0.973430	0.849237	-0.224417
-1.050245	0.414821	3.770719	0.633820	-0.807777	-1.203774
-0.804869	-1.424044	0.444791	0.139332	2.602532	-0.060657
1.032612	6.666862	-2.862763	1.371639	0.990409	-0.840896
3.621713	0.428194	-1.201682	-0.681526	0.174031	1.850321
1.546215	-4.299891	0.949009	0.990126	0.628905	-0.521564
2.516652	0.379360	-0.503721	-0.681013	1.093297	-1.828058
1.160542	0.679315	2.082500	-1.082214	-1.089390	-0.134514
-6.357324	1.496857	-1.537777	-0.105361	-1.045941	-1.419154
2.886877	0.011270	-3.343224	-0.522960	0.259145	1.179806
256

1.391466	-0.077416	-7.244178	0.973760	0.243113	0.616601
-1.297897	-2.556426	-4.912475	-0.345124	-0.023581	-0.448231
-3.925740	-0.985675	-0.271242	1.483203	-0.511952	1.471616
-0.778167	-5.768328	4.652293	-1.617259	-0.458983	-0.590218
2.019247	1.777656	-3.829281	2.249112	-0.487884	-0.236376
-2.567239	0.013939	-2.613290	0.394554	-1.343228	0.253087
0.462255	-0.869447	0.634483	0.953403	0.206187	0.045448
3.596990	5.175422	0.846504	-0.298895	-1.939064	-1.119781
1.209613	2.379002	1.167695	1.529799	-1.801692	0.620762
-3.624030	-8.201874	4.871194	-0.067673	2.580949	0.412216
6.990155	-4.753859	3.624258	-0.052227	-1.414099	-1.112080
-3.275331	-2.739312	-2.151960	-1.631326	-0.136944	1.108288
2.776049	3.185373	1.066959	-0.100225	0.188162	-0.634811
3.326241	0.899712	-3.060287	-0.031494	0.047584	0.761736
-0.722451	-1.709683	2.575720	0.343937	-0.771232	0.649949
-0.968890	1.058427	-0.630923	0.782013	-0.379915	-0.426572
4.555112	-2.998965	4.024064	-1.396394	-0.277775	0.606513
-0.482570	3.922945	3.015911	-0.710875	1.864583	0.199407
1.401946	-0.076125	-0.426164	-0.421689	-0.192710	0.199303
2.382286	2.086696	-8.422200	0.768961	-1.249879	-0.191291
1.738949	-3.656091	-1.980193	0.227069	-0.068150	0.017838
0.088597	-2.545122	0.929102	1.057649	1.688496	2.685783
-0.313255	1.693097	-1.372324	-0.943722	0.659734	0.954011
0.664549	4.317986	0.447702	0.502942	1.507294	0.851762
4.401734	0.576824	7.746467	1.151023	-1.108068	0.296913
0.793340	0.625800	-1.495429	-0.391738	-0.012393	-0.248626
1.508027	4.210572	-0.197624	1.087861	-0.534794	-1.649320
4.169373	-0.368958	-5.267022	1.321273	1.591773	-0.031436
2.184426	-8.857574	-7.950922	0.985808	0.509941	-0.838932
-3.200501	-1.404428	2.327447	0.055756	-0.581999	0.555479
0.228027	-8.965436	2.309647	-0.976869	-1.307333	-0.715499
3.058544	-2.250340	-3.188215	0.397702	0.349926	0.011147
2.290755	4.828892	1.128862	-1.895220	-0.480170	0.150341
-3.704430	1.764408	2.556489	-0.238131	1.050433	-0.618592
-3.914930	1.010702	0.889470	-1.803193	0.366821	0.325824
3.493336	1.111089	-7.918265	0.216543	-0.016426	0.010649
-8.027199	5.048087	3.494189	0.489917	-0.405240	-0.882450
-5.875487	2.010106	3.150356	-0.117625	-0.712888	0.641406
1.050863	-0.705692	4.115379	1.573670	0.420190	-1.466977
4.477899	3.042503	-0.406590	-1.109378	0.223670	-0.996703
-1.757216	2.854166	5.720797	0.866934	1.856616	-0.307466
8.603889	-3.400253	-2.297718	1.193349	0.919336	1.328974
0.612466	-3.151022	2.251114	0.270612	-0.103540	0.063831
-4.134375	-1.878327	2.893033	0.836365	0.543684	0.719941
-2.780695	-5.342378	-2.391564	0.392302	0.759475	-0.169954
-1.493874	4.351241	3.432704	-0.034147	-1.764492	-0.279142
-3.805699	2.125177	1.494361	2.015221	0.036147	-0.405906
-3.606023	-0.602930	0.489672	-0.503890	1.344848	0.985695
1.003033	-2.403722	-4.571813	1.008662	0.708755	-0.043933
-4.366631	-4.053957	4.841113	-1.777529	1.514673	-0.185990
2.015009	5.984371	-2.636331	0.844411	-1.294367	-1.484170
-2.648873	0.708370	4.162852	-0.113136	-1.711336	0.714143
2.909066	4.016747	-1.899064	0.877589	0.010091	-0.203972
1.345347	-1.496891	-0.171468	-0.446448	1.324650	-2.253091
1.229683	-2.081160	2.020830	-1.625843	-0.999874	-0.409508
0.295703	1.798683	1.147968	0.442036	-0.103772	0.138491
1.785512	-1.133456	1.788326	-0.042415	0.519358	-0.429745
0.959526	0.776763	-2.578825	0.939240	-0.382805	-0.825425
0.483286	-0.469880	-4.809971	0.148592	0.128130	0.307851
0.402945	3.028718	1.394014	-0.238971	-0.702739	0.606027
-0.343839	5.402156	-1.154059	-0.997229	-0.371790	1.730575
2.048768	-1.272129	-3.510848	0.488705	-0.947450	-0.179684
-2.971696	-6.246127	-4.713603	0.050165	-0.951466	-0.601258
0.227618	1.326392	-0.471236	0.515952	-0.074582	-0.068190
-1.911403	-1.474354	0.946538	0.159358	0.461844	1.120395
2.165037	-3.757085	-4.418485	-2.382385	-2.518611	-0.211761
1.996164	0.945245	-5.578312	-0.036454	-1.651731	0.367866
4.302277	-7.138097	-2.852346	1.447573	0.043928	1.696319
1.139252	2.183589	-5.322119	-0.823693	-0.529324	0.116434
2.713394	1.345906	6.663264	-0.198079	-0.358437	-0.436787
0.979963	2.557651	-1.908654	-1.180923	2.427980	1.098868
-1.109655	-5.373812	-1.073549	-1.789033	-1.557771	0.878928
3.130193	-0.231480	-0.140500	-1.696860	0.718635	0.879703
-5.794507	5.736972	-3.827515	-0.726259	1.757093	-1.882745
1.930773	2.901225	4.807582	0.464990	-0.228516	-1.155561
1.807294	1.798509	-2.763333	1.531772	-0.389466	-1.611656
0.896071	-4.570470	4.084857	2.026053	0.699088	1.289302
-1.663373	-10.060538	4.730095	-0.136523	-1.595488	-0.310847
-1.826775	-3.184246	-5.681782	-1.070864	-1.015347	-2.436749
1.610804	-1.488327	-4.499966	2.180769	0.190593	0.879655
-0.245375	-1.262482	-0.541376	-0.669035	-0.734539	-0.841347
-5.081994	3.185214	-2.955761	0.099532	-1.020853	1.004745
-0.500293	3.482921	0.736499	0.811385	0.443412	0.214629
3.197814	-0.474309	3.378862	-0.129367	0.712501	1.516310
0.223621	0.150128	1.374661	-1.355253	0.384177	1.106603
-2.572252	-4.425012	0.688796	1.145845	-0.279404	-0.004100
0.988979	-0.587123	1.588027	-0.340118	-0.085321	-1.405677
3.517500	-4.231772	-6.221156	1.986769	2.843713	-1.313651
-3.885299	3.095539	-2.107771	-0.083101	-0.395542	1.329779
-0.685706	-1.582090	-1.289833	0.502536	-0.131866	-0.039881
0.023686	2.675982	0.361395	-0.189924	0.294053	0.486007
-0.547848	-0.444977	-1.183591	1.317118	0.693166	0.318178
-0.452718	-0.723391	-2.134749	-0.427626	-0.051218	0.958012
2.135912	-4.745626	-2.157390	-0.542468	1.028645	-0.311906
-1.007452	-0.538645	2.903556	-0.863215	-0.231923	-1.526483
3.881789	5.082514	2.951416	0.699374	-0.650600	2.131662
-3.074739	3.774062	-3.374969	-0.713307	-0.012413	-1.456819
-3.679686	5.661619	-0.410050	-0.713164	-0.481129	-1.228254
-1.500155	1.436239	0.824535	0.919273	0.393931	-0.548559
-3.680682	-3.326779	-2.920867	-0.158579	2.313192	-0.831897
-1.193245	0.288826	1.223611	-0.007891	0.097441	-0.546549
-0.850793	3.666036	-2.289983	0.160698	-1.542759	-1.998322
-0.702788	0.696556	-1.700689	-1.463021	0.687074	0.162048
2.668814	0.172771	1.242699	0.316862	0.039789	-0.211174
-0.556960	-0.067374	4.819059	0.669355	-1.465795	0.116251
-1.506624	5.610567	0.571827	0.600570	1.040444	-0.476088
-1.108838	-1.649904	-2.313232	-0.392433	0.194414	-1.393447
3.881776	5.341977	1.900464	0.521661	0.827278	2.024324
3.419987	2.443149	2.135121	-0.258535	-0.500524	-1.175404
-2.546416	-3.581575	6.747709	-0.993363	-0.329806	-0.731668
1.758296	-0.229159	-3.226253	-1.612116	-0.247735	1.496423
4.536100	-0.860245	5.688184	0.719102	0.983790	1.405023
1.206294	3.184788	-0.041544	-0.950789	0.932636	-0.490014
-5.145180	3.344216	3.762742	-0.226649	0.325082	-0.648381
-5.298160	0.048200	-1.615782	1.223126	-0.171945	-0.926347
3.709716	1.512525	-0.941187	1.273906	0.609719	-0.503253
