64

-9.187450	-13.745546	-0.602689	-1.152767	2.326041	-1.224088
1.455816	-7.145923	-0.300296	-1.133124	0.879283	0.861805
-1.123758	-5.477245	-0.780148	0.145955	0.750181	0.068727
9.672288	-4.346273	-16.089194	0.078283	0.409898	-0.931813
-17.049033	0.940004	0.894790	0.754362	0.090092	0.993425
8.965295	4.181007	-3.531355	1.032125	1.814459	0.841235
-6.620830	3.565443	2.538978	0.434534	-0.022626	-0.785039
-11.707797	2.940883	-12.255960	-1.128905	1.860903	-1.859694
4.953575	3.026490	2.036926	2.566192	1.860755	-1.094855
-4.059164	-3.668664	5.513025	-0.344986	0.910667	1.414426
-9.329237	6.389504	-3.322069	-0.765357	1.800372	-1.185190
0.116588	-12.008934	-2.125307	-0.157220	-1.174634	0.499386
-18.858902	15.309404	13.525920	0.033917	0.371101	1.451085
1.287753	-4.431564	1.786956	-0.661212	-0.450933	-0.719863
12.439106	12.659665	16.440575	0.979298	-1.085575	-0.967882
1.275793	17.526176	-6.068011	0.338268	-0.116382	0.169798
1.325631	-12.890137	-2.242382	-0.339097	-2.209915	-0.349774
-1.051870	-21.529013	6.673406	-1.254470	-1.471481	0.346284
-6.713169	-8.478978	5.843892	-0.825329	-1.003428	1.583886
13.088489	-4.072441	-3.857330	-0.947856	1.402321	1.554949
-14.979383	-9.904900	2.377100	-1.130672	-0.104224	0.067073
0.346701	-21.741164	20.064114	0.571956	-0.499343	1.998385
-3.553408	2.854854	-0.343754	0.891807	0.301092	-0.244434
-1.063623	8.649067	-2.160134	-1.063439	-1.192393	0.296084
-13.835142	9.413045	-2.915898	-1.093015	-0.468570	-0.622418
-0.838667	-3.091139	5.161931	0.679692	-0.670262	0.418438
0.077924	-4.205150	2.590959	0.301074	-2.040815	-0.957788
16.276617	0.488105	-4.774111	1.239613	1.057563	0.158192
-2.717200	18.066171	4.523962	-0.134133	1.179145	-1.362094
-11.015364	2.549331	4.019449	-0.642641	0.815469	-0.928547
-2.329613	4.695800	-0.865473	0.309281	0.294958	0.593533
15.842532	8.550722	8.780079	1.481801	0.391166	0.438239
64

-2.854135	-8.531547	0.588163	-1.683446	-0.944134	0.658857
4.865905	-10.960603	-14.693490	1.578911	-0.070256	0.680494
-23.659435	-23.773469	-17.251686	-0.035281	-3.127864	0.316158
12.776136	-9.486523	-20.013437	0.955593	2.242343	0.762718
-4.822504	-11.378500	-13.273342	0.957499	-0.575072	-0.160533
-12.335557	-6.354114	-9.188951	-1.097347	-0.608647	0.331627
-12.272728	-0.873608	-10.979506	-0.519199	-0.205225	-0.954783
1.422861	-5.783759	-2.372650	-0.491601	0.806262	0.000801
-8.828720	-3.556838	-7.382539	1.267526	-0.101765	0.756197
-6.626819	1.896219	-3.111532	0.758551	0.122597	0.880896
-8.021800	-11.261955	-15.294068	-1.571075	-1.953866	-0.675669
6.154459	11.798107	-22.967671	-1.847728	1.320887	-1.633750
-6.333519	7.700329	-1.330276	-0.809674	-0.554193	-0.217754
-8.581829	-3.193796	5.716779	-0.753192	-2.490324	0.997637
-0.682785	3.207508	-11.441411	-0.100663	-0.762151	1.593335
0.792530	3.422138	-9.026855	0.320338	-0.675296	-0.148815
-7.835101	-8.107446	5.598841	0.601753	-0.953962	-0.813696
2.077922	-23.195175	4.765793	-1.303190	-2.169158	1.257153
2.153438	-0.048251	-7.901680	1.536593	2.187035	-2.465670
-3.150595	-18.619574	-13.473093	-0.584368	-0.762280	-0.602276
-3.932567	2.463334	1.434454	0.360789	1.002791	1.616536
-4.302826	-14.714753	14.758810	-2.349205	-0.256399	0.590771
-0.824126	-0.370749	6.846729	0.027540	-0.207030	-0.412955
3.361626	-8.378339	2.585614	1.956488	-0.923981	1.677432
12.284352	-5.194689	-4.077066	2.327164	0.339088	-1.253996
-1.971977	3.478198	19.721140	0.578256	0.931998	-0.775845
-6.641278	3.252222	-5.613815	-0.882444	0.496062	-0.618120
3.252696	-11.433769	-5.711966	-0.515516	-2.201673	0.059523
-3.055142	13.492159	-13.814560	-0.309249	0.587167	-1.557011
0.102623	5.826476	-14.172038	-0.196282	0.366135	-1.451329
-9.620391	7.012823	-5.374939	0.314063	1.522704	1.012103
8.047695	7.376059	-2.178964	0.960516	1.253376	0.137367
-9.416561	-13.273578	-0.855444	-1.135170	2.402722	-1.329413
1.218719	-6.959918	-0.108131	-1.260215	0.997248	1.117461
-1.137693	-5.347849	-0.770833	-0.158399	0.520841	0.041390
9.734549	-4.242432	-16.296419	0.544778	0.561000	-1.143039
-16.909082	0.941611	1.074456	0.636752	-0.080998	0.780316
9.170392	4.541398	-3.358388	1.019752	1.793794	0.878920
-6.528797	3.552773	2.382984	0.477279	-0.096114	-0.769151
-11.906441	3.327962	-12.614704	-0.921172	1.980024	-1.762849
5.479789	3.381048	1.803979	2.725777	1.638713	-1.244301
-4.125182	-3.510961	5.774223	-0.331438	0.698522	1.228119
-9.357107	6.884083	-3.444885	0.065365	2.505047	-0.576313
0.065521	-12.241897	-2.035066	-0.339181	-1.180619	0.405011
-18.889699	15.413837	13.790434	-0.337628	0.666797	1.204517
1.119621	-4.493436	1.692138	-1.032054	-0.158968	-0.180670
12.713298	12.478549	16.320590	1.772111	-0.265660	-0.071290
1.348329	17.460065	-5.983589	0.361900	-0.549186	0.695457
1.221469	-13.332965	-2.336817	-0.710915	-2.183093	-0.621694
-1.291093	-21.786334	6.786053	-1.155997	-1.185433	0.647691
-6.958626	-8.758731	5.920500	-1.598819	-1.627274	-0.551678
12.885847	-3.798310	-3.550470	-1.093232	1.332071	1.497583
-15.206127	-9.925251	2.390391	-1.141853	-0.095111	0.064594
0.461436	-21.843865	20.461146	0.575383	-0.529626	1.970664
-3.349839	2.916016	-0.375549	1.154626	0.328173	-0.078252
-1.254748	8.400339	-2.141025	-0.915962	-1.348213	0.063115
-14.081619	9.303134	-3.047371	-1.159244	-0.460619	-0.633953
-0.655086	-3.238748	5.230753	1.215165	-0.814712	0.285987
0.153595	-4.627267	2.434056	0.658829	-1.976562	-0.667203
16.528793	0.704444	-4.730139	1.283041	1.121898	0.311503
-2.743909	18.300910	4.251509	-0.133282	1.172402	-1.362378
-11.143893	2.712425	3.833739	-0.642641	0.815469	-0.928547
-2.225725	4.723219	-0.731959	0.600149	-0.039466	0.745606
16.141461	8.631617	8.863051	1.524175	0.421760	0.395398
64

-3.196779	-8.707366	0.721921	-1.733093	-0.822193	0.681035
5.187925	-10.983206	-14.526852	1.645055	-0.176372	1.031872
-23.666969	-24.399558	-17.187323	-0.040728	-3.134514	0.325798
12.971732	-9.032005	-19.838469	0.952759	2.266626	0.842532
-4.809926	-11.667107	-13.386590	-0.122720	-1.550844	-0.779309
-12.551251	-6.483695	-9.176386	-1.089342	-0.681711	-0.204659
-12.390584	-0.929765	-11.180639	-0.712965	-0.385200	-1.054378
1.324455	-5.619977	-2.374937	-0.497056	0.837453	-0.020941
-8.597116	-3.621826	-7.232285	1.040927	-0.502799	0.776105
-6.423960	1.841695	-2.903098	1.005960	-0.354956	0.971969
-8.316430	-11.690038	-15.449054	-1.395029	-2.306109	-0.840166
5.653235	12.145085	-23.203301	-2.463644	1.701513	-1.200312
-6.495490	7.589438	-1.373911	-0.810818	-0.555805	-0.220391
-8.765420	-3.696557	5.913555	-1.295755	-2.464513	1.207239
-0.719537	3.070886	-11.114015	-0.272499	-0.593778	1.698787
0.824844	3.313504	-8.928291	-0.124759	-0.318348	1.710974
-7.755421	-8.230392	5.420524	0.216811	-0.120048	-0.938898
1.781758	-23.598516	4.979131	-1.561435	-1.843029	0.688633
2.472383	0.401269	-8.406395	1.182923	1.963376	-2.330661
-3.138490	-18.861480	-13.697038	0.092309	-0.986728	-0.299009
-3.831273	2.610374	1.741875	0.625959	0.522913	1.467933
-4.770127	-14.756495	14.883398	-2.323966	-0.175653	0.643518
-0.826993	-0.436801	6.770509	-0.048673	-0.422378	-0.350203
3.751996	-8.568087	2.910600	1.952892	-0.984648	1.572738
12.749688	-5.114310	-4.323358	2.312728	0.453399	-1.219564
-1.877703	3.704240	19.577561	0.483009	0.995484	-0.622925
-6.819318	3.349900	-5.737451	-0.896048	0.481223	-0.615309
3.115920	-11.871700	-5.689690	-0.844198	-2.183225	0.147394
-3.108483	13.605156	-14.113868	-0.215696	0.551400	-1.426001
0.136870	5.871590	-14.430100	1.432762	-1.088982	-0.600377
-9.532696	7.288390	-5.152539	0.576147	1.189848	1.217478
8.091833	7.401893	-2.198053	-0.635280	-1.166507	-0.361770
-9.640426	-12.785321	-1.136216	-0.736297	2.119282	-0.639091
0.996997	-6.784685	-0.012919	-0.832825	0.663442	-0.742195
-1.084341	-5.279458	-0.766039	0.498746	0.153891	0.023065
9.896123	-4.140331	-16.538179	1.090284	0.433809	-1.235738
-16.792384	0.912003	1.230705	1.053699	0.157612	0.673234
9.374579	4.900634	-3.184021	1.025290	1.804398	0.855454
-6.432028	3.529703	2.232382	0.486968	-0.129354	-0.736553
-12.091768	3.729473	-12.973985	-0.952492	2.026021	-1.852216
6.006555	3.758652	1.559989	2.586100	2.083646	-1.214260
-4.194023	-3.378911	6.012828	-0.358587	0.641511	1.171751
-9.341856	7.351698	-3.544339	0.133079	2.097511	-0.529256
-0.017382	-12.486573	-1.966003	-0.861862	-0.902733	-0.543808
-18.992572	15.580832	14.010726	-0.681229	1.032314	1.008956
0.926321	-4.491698	1.674831	-0.584858	0.321497	-0.299986
12.996375	12.447090	16.221090	1.259914	-0.353856	-0.693782
1.420119	17.323552	-5.783523	0.354045	-0.838757	1.265368
1.052257	-13.745442	-2.489500	-0.927139	-1.940532	-0.887235
-1.529475	-22.042254	6.871432	-1.212105	-1.338694	0.473246
-7.215792	-9.091621	5.875585	-0.928168	-1.864790	0.072911
12.647593	-3.538447	-3.263000	-1.295439	1.271800	1.380145
-15.439061	-9.939956	2.402909	-1.200145	-0.036663	0.062433
0.576551	-21.952243	20.852311	0.574935	-0.549806	1.942996
-3.086071	2.995888	-0.372649	1.504208	0.507344	0.129688
-1.251705	8.394088	-2.029257	1.021009	1.399661	0.827513
-14.139712	9.393245	-3.123496	-0.128034	0.619916	-0.370202
-0.410635	-3.327334	5.244517	0.371807	1.108811	-0.649405
0.282917	-5.008001	2.348582	0.305933	-2.011118	0.067948
16.787360	0.936514	-4.655574	1.209451	0.969852	-0.424920
-2.770565	18.535390	3.979033	-0.133282	1.172402	-1.362378
-11.272421	2.875518	3.648030	-0.642641	0.815469	-0.928547
-2.198400	4.680224	-0.560816	-0.247971	-0.091825	0.895173
16.468196	8.723233	8.939139	1.811071	0.513047	0.360558
64

-3.544479	-8.863701	0.860699	-1.739575	-0.749682	0.704786
5.522362	-11.038393	-14.261258	1.691247	-0.360894	1.655828
-23.675639	-25.028981	-17.123961	-0.042833	-3.165172	0.294734
13.145504	-8.583642	-19.685992	0.825797	2.184872	0.824898
-4.810131	-11.929618	-13.573442	0.126244	-1.137349	-1.081012
-12.796125	-6.620289	-9.255985	-1.368888	-0.613437	-0.427578
-12.340091	-0.967389	-11.456259	1.421417	0.051843	-1.787270
1.220425	-5.440214	-2.382400	-0.560974	1.010968	-0.071331
-8.418449	-3.744369	-7.060567	0.717329	-0.694373	0.975572
-6.242503	1.789779	-2.749985	0.842218	-0.169359	0.571774
-8.539409	-11.889350	-15.538270	-1.065816	-0.653397	-0.234334
5.162729	12.480685	-23.445591	-2.473615	1.659204	-1.209035
-6.658375	7.477493	-1.419398	-0.820185	-0.565017	-0.237598
-8.952022	-4.124402	6.250863	-0.212683	-1.757274	2.191568
-0.799768	2.979687	-10.758171	-0.558232	-0.281227	1.858593
0.802037	3.253350	-8.616211	-0.111321	-0.269415	1.411388
-7.672402	-8.258816	5.273340	0.614557	-0.225141	-0.517641
1.418663	-23.954113	5.082730	-2.087121	-2.075803	0.939141
2.345389	0.562331	-8.735492	-0.748230	0.737404	-1.629140
-3.114295	-19.018490	-13.532900	0.110752	-0.766889	0.827830
-3.699828	2.753593	2.014782	0.701447	0.862393	1.258872
-5.234873	-14.788854	15.014368	-2.344514	-0.155545	0.669522
-0.841527	-0.534766	6.709642	-0.092082	-0.555952	-0.248607
4.146461	-8.780694	3.211289	1.995303	-1.171167	1.414693
13.209413	-5.018700	-4.568785	2.304604	0.490935	-1.242824
-1.709623	3.723952	19.467710	0.948708	-0.106451	-0.543037
-6.998924	3.445408	-5.858588	-0.898054	0.476769	-0.593405
2.915154	-12.308970	-5.656701	-1.162447	-2.188894	0.179145
-3.136997	13.717978	-14.379822	-0.055558	0.593032	-1.216494
0.369490	5.624604	-14.625379	0.607002	-1.253200	-1.724524
-9.365184	7.509888	-4.896497	1.179047	1.047171	1.294978
7.965994	7.162897	-2.204031	-0.749553	-1.459204	0.547436
-9.650064	-12.451963	-0.965986	-0.024710	1.623592	0.915027
0.823334	-6.651859	-0.131070	-0.908563	0.658234	-0.437547
-1.045891	-5.292665	-0.744778	-0.156051	-0.289500	0.203687
10.172693	-4.071987	-16.775446	1.668847	0.264541	-1.105543
-16.193993	1.178398	1.255073	3.180746	1.433260	0.100734
9.588663	5.266661	-3.017911	1.167903	1.874626	0.810496
-6.335081	3.502457	2.088051	0.482031	-0.140410	-0.709167
-12.294881	4.133100	-13.362745	-1.096989	1.991779	-2.052628
6.549554	4.127667	1.314706	2.850102	1.622561	-1.257443
-4.270768	-3.243829	6.247051	-0.423030	0.753241	1.178228
-9.314261	7.729250	-3.677831	0.104429	1.735254	-0.850581
-0.347886	-12.564250	-2.389474	-1.806703	-0.248159	-2.244240
-19.146169	15.841612	14.211411	-0.882866	1.564609	0.950078
0.820396	-4.416962	1.630828	-0.586430	0.284259	-0.019273
13.240793	12.323933	16.087330	1.174884	-0.830558	-0.636979
1.425955	16.830290	-5.580970	-0.242828	-2.808604	0.697511
0.867007	-14.129070	-2.701213	-0.933113	-1.980143	-1.193622
-1.728464	-22.250673	6.944193	-0.676123	-0.596712	-0.054569
-7.408038	-9.423248	5.881957	-1.004041	-1.425806	-0.047844
12.368708	-3.289915	-2.993070	-1.484166	1.210203	1.330424
-15.690592	-9.928195	2.418414	-1.313846	0.194838	0.107966
0.691326	-22.062925	21.239183	0.572915	-0.558453	1.926672
-2.738577	3.135118	-0.312369	1.972681	0.875167	0.361234
-1.072391	8.624750	-1.902533	0.790699	0.974566	0.487437
-14.188955	9.482803	-3.228269	-0.344441	0.287941	-0.722183
-0.328159	-3.094696	5.111556	0.573998	1.009996	-0.611583
0.338446	-5.391459	2.384723	0.359062	-1.710659	0.132711
17.015633	1.091668	-4.960834	1.124736	0.750024	-1.524403
-2.797221	18.769871	3.706557	-0.133282	1.172402	-1.362378
-11.400949	3.038612	3.462320	-0.642641	0.815469	-0.928547
-2.278739	4.824246	-0.400801	-0.243590	0.791865	0.744698
16.655594	8.775364	9.062207	-0.113611	-0.039169	0.954700
64

-3.893293	-9.010114	1.003240	-1.759451	-0.715801	0.720047
5.840159	-11.220542	-14.031636	1.496034	-1.590112	0.457260
-23.682520	-25.667299	-17.072891	-0.022890	-3.233961	0.212192
13.327871	-8.169611	-19.478032	1.015128	1.959141	1.217485
-4.759122	-12.152706	-13.801083	0.239852	-0.830466	-1.224176
-13.074861	-6.742046	-9.284935	-1.337406	-0.533615	-0.099910
-12.046573	-0.979949	-11.808232	1.551512	-0.154132	-1.746828
1.147271	-5.300455	-2.393103	0.956019	-1.622930	0.314636
-8.329201	-3.890580	-6.832075	0.173167	-0.737694	1.308403
-6.077183	1.772267	-2.670604	0.820317	-0.007635	0.229106
-8.722324	-12.060284	-15.610667	-0.508750	-0.860171	-0.916401
4.651153	12.803940	-23.683851	-2.683535	1.540728	-1.175535
-6.825262	7.362755	-1.470927	-0.855950	-0.583977	-0.284597
-8.941547	-4.482681	6.305989	-0.464921	-2.090607	1.297800
-0.898285	2.920020	-10.378438	-0.256600	-0.520342	1.967444
0.775419	3.214175	-8.339051	-0.168761	-0.083958	1.412857
-7.517222	-8.316247	5.207652	0.929793	-0.328044	-0.152674
1.398627	-24.292245	5.354787	1.432681	-0.900210	-0.409064
2.216132	0.725234	-9.071204	-0.568840	0.878341	-1.709961
-3.095329	-19.175617	-13.383412	0.068945	-0.816353	0.705267
-3.551306	2.940317	2.250535	0.776695	1.006953	1.116603
-5.485541	-14.784920	15.117906	2.588180	0.625592	-0.018850
-0.863014	-0.659489	6.674878	-0.121647	-0.693734	-0.089285
4.543421	-9.042260	3.468229	1.946543	-1.431905	1.146907
13.450385	-4.956346	-4.788387	-2.646171	-0.300042	-0.568226
-1.529803	3.755471	19.352700	0.998765	0.223472	-0.849072
-7.177547	3.540936	-5.974836	-0.886290	0.478779	-0.570243
2.648413	-12.749014	-5.618804	-1.549737	-2.235506	0.202534
-3.124983	13.852216	-14.592919	0.180237	0.776626	-0.907393
0.178358	5.277472	-14.939755	-1.914540	-2.048534	-1.381890
-9.137396	7.621836	-4.709399	0.861244	-0.378074	0.298125
7.829970	6.884371	-2.099869	-0.568235	-1.239920	0.355409
-9.661015	-12.125853	-0.790619	-0.077052	1.640213	0.855720
0.631021	-6.523072	-0.207574	-1.027284	0.627221	-0.352449
-1.111777	-5.336907	-0.690454	-0.110075	0.637528	0.285455
10.567018	-4.025803	-16.971740	2.223516	0.201630	-0.861672
-15.591452	1.465386	1.253758	2.852856	1.451745	-0.104193
9.723084	5.646525	-2.906264	-1.489977	1.924968	-0.310724
-6.239217	3.473122	1.947489	0.476820	-0.156663	-0.700280
-12.537352	4.515794	-13.802887	-1.333081	1.807644	-2.357647
7.114635	4.453919	1.073666	2.820255	1.544775	-1.242314
-4.367773	-3.063895	6.483652	-0.414979	0.745961	1.240631
-9.309890	8.091528	-3.776705	-0.151589	2.186428	0.574470
-0.743223	-12.593501	-2.840372	-2.176054	-0.064251	-2.274963
-19.544160	15.992738	14.241392	-2.461835	0.341982	-0.215236
0.693588	-4.379617	1.666730	-0.666641	0.118927	0.384321
13.466482	12.130410	15.964915	1.104250	-1.060330	-0.587783
1.510365	16.578993	-5.466248	0.846811	-0.496258	0.725129
0.655871	-14.456410	-2.492603	-0.276137	0.743159	2.019957
-1.831227	-22.368447	6.957647	-0.369781	-0.688471	0.307147
-7.610306	-9.673882	5.858398	-1.006080	-1.112421	-0.176039
12.060615	-3.054038	-2.727917	-1.569968	1.158206	1.328421
-15.954100	-9.853655	2.454713	-1.283207	0.533539	0.273287
0.805757	-22.176254	21.623528	0.571711	-0.578874	1.920316
-2.359950	3.292197	-0.284008	1.040441	0.346837	0.498493
-0.948043	8.808259	-1.823433	0.470821	0.885865	0.301026
-14.246699	9.621836	-3.262038	-0.221064	1.278149	0.545258
-0.152929	-2.897422	4.993250	1.210263	0.982336	-0.577128
0.425056	-5.705506	2.392072	0.500870	-1.509599	-0.073351
17.238656	1.239712	-5.249012	1.108736	0.732932	-1.396285
-2.823878	19.004351	3.434082	-0.133282	1.172402	-1.362378
-11.529402	3.201878	3.276356	-0.643300	0.818207	-0.933402
-2.269268	4.924414	-0.265205	0.318275	0.216917	0.620182
16.664645	8.774594	9.233625	0.144374	0.017386	0.788063
64

-4.263784	-9.141716	1.150005	-1.998669	-0.542347	0.752013
6.140515	-11.505524	-13.915364	1.487314	-1.314504	0.668989
-23.718000	-26.233627	-16.967217	-1.025356	-0.657092	2.238612
13.550804	-7.791088	-19.215824	1.206544	1.860717	1.383882
-4.779303	-12.180321	-14.103769	-0.142220	-0.086754	-1.496091
-13.302678	-6.817281	-9.323115	-0.937056	-0.282618	-0.284388
-11.829325	-1.007087	-12.178001	0.752331	-0.139785	-1.991357
1.369926	-5.674004	-2.343176	1.019991	-1.685541	0.137356
-8.162650	-4.010164	-6.482640	1.242811	-0.429637	2.181993
-5.915748	1.783576	-2.654216	0.787210	0.106171	-0.050466
-8.787659	-12.269384	-15.833172	-0.309256	-1.359521	-0.898895
4.080453	13.075040	-23.920984	-2.989317	1.128959	-1.204985
-7.005312	7.243806	-1.536437	-0.959993	-0.603154	-0.378024
-9.063276	-4.902500	6.632818	-0.622742	-2.071278	1.808260
-0.957828	2.830751	-9.987128	-0.434546	-0.224010	1.838124
0.746815	3.176009	-8.071017	0.185446	-1.395896	0.657118
-7.298411	-8.382769	5.209444	1.268692	-0.322400	0.164414
1.665611	-24.453906	5.229780	1.317280	-1.007872	-0.484061
2.110600	0.908251	-9.414437	-0.501160	0.939553	-1.717106
-3.094062	-19.350676	-13.243970	-0.083983	-0.951693	0.696863
-3.357296	3.063637	2.396866	1.857653	-1.551642	-1.027857
-4.989637	-14.662911	15.115769	2.426049	0.601254	-0.004856
-0.890382	-0.814313	6.679897	-0.156605	-0.859682	0.163617
4.919671	-9.341796	3.676349	1.823189	-1.534872	0.965677
12.934808	-5.011775	-4.906098	-2.609957	-0.241199	-0.609221
-1.321851	3.696491	19.148929	1.022275	-0.364575	-0.819551
-7.353220	3.638662	-6.086425	-0.870230	0.503965	-0.541540
2.423843	-13.134190	-5.614973	0.437686	-1.053466	-0.530689
-3.094937	13.991419	-14.784677	0.013370	0.390664	-1.175805
-0.171435	4.905900	-15.221256	-1.646835	-1.638494	-1.491448
-8.970127	7.501283	-4.609365	1.128722	-0.561602	0.543483
7.737777	6.670890	-2.069572	-0.377496	-0.895303	-0.049992
-9.680494	-11.795046	-0.622962	-0.120647	1.670394	0.815939
0.407520	-6.402233	-0.276308	-1.217194	0.578611	-0.337861
-1.100339	-5.029164	-0.615765	-0.110881	1.540705	0.454998
10.857694	-4.007073	-17.184217	0.941995	0.024310	-1.246491
-15.031060	1.752570	1.220040	2.828459	1.360224	-0.220036
9.417098	6.039963	-2.981981	-1.391861	2.023750	-0.323016
-6.144370	3.437136	1.805483	0.469801	-0.218233	-0.732828
-12.798266	4.893559	-14.264631	-1.173666	2.196324	-2.097249
7.679830	4.732133	0.798435	2.704270	1.148700	-0.823357
-4.388120	-3.053158	6.788612	-0.062776	0.017220	1.501880
-9.346344	8.518456	-3.665676	-0.185371	2.002272	0.420033
-0.965988	-12.648268	-3.288366	-0.406957	-0.451636	-2.221261
-19.988801	16.078671	14.208524	-2.051125	0.445433	-0.041757
0.562796	-4.356874	1.792804	-0.622369	0.120060	0.842159
13.687625	11.926714	15.853063	1.066222	-0.916193	-0.539095
1.503726	16.433692	-5.303446	-2.035291	-1.265985	1.036149
0.596622	-14.247401	-2.132525	-0.316336	0.944719	1.533133
-2.125152	-22.486231	7.059055	-2.180040	-0.566725	0.722172
-7.808051	-9.878407	5.815770	-0.971041	-0.954338	-0.240273
11.748976	-2.823901	-2.457030	-1.528505	1.142392	1.392014
-16.196669	-9.730260	2.526598	-1.148387	0.664320	0.423482
0.920084	-22.296538	22.009306	0.571701	-0.631151	1.944353
-2.258365	3.317616	-0.096298	0.498411	0.178742	1.095596
-0.757708	8.967508	-1.769019	1.329498	0.736631	0.257533
-14.273411	9.855914	-3.178055	-0.016107	1.115863	0.332789
0.117292	-2.724649	4.856092	1.290864	0.664376	-0.933530
0.521883	-5.965122	2.383925	0.157556	-0.011585	0.614602
17.459895	1.385651	-5.525675	1.104579	0.727586	-1.375836
-2.850534	19.238831	3.161606	-0.133282	1.172402	-1.362378
-11.660745	3.366157	3.088139	-0.680209	0.823420	-0.951124
-2.159198	4.920092	-0.149319	0.893261	-0.063159	-0.137365
16.698672	8.778979	9.386796	0.184282	0.024208	0.752554
64

-4.668718	-9.241043	1.301064	-2.027638	-0.371241	0.749015
6.399925	-11.788753	-13.783107	1.111542	-1.526742	0.639431
-23.921925	-26.355378	-16.510978	-0.955576	-0.654273	2.240668
13.807355	-7.409373	-18.923466	1.271353	1.562866	1.235176
-4.763792	-12.195160	-14.368962	0.285706	-0.043638	-1.175237
-13.453851	-6.868775	-9.389012	-0.600158	-0.258307	-0.338344
-11.632511	-1.042065	-12.578372	0.732211	-0.230460	-1.524229
1.551386	-5.979688	-2.344385	0.785777	-1.390634	-0.133123
-7.991907	-4.124871	-6.030519	-0.198715	-1.882362	1.811955
-5.762978	1.808861	-2.685147	0.742480	0.134737	-0.250043
-8.836770	-12.602350	-15.958364	0.581243	-1.878597	-0.944516
3.475507	13.254064	-24.166716	-3.026667	0.711857	-1.250730
-7.216040	7.124003	-1.623589	-1.162600	-0.584911	-0.491285
-9.174133	-5.325229	7.036396	-0.458967	-2.172742	2.194924
-1.078759	2.836204	-9.656561	-0.778166	0.256239	1.477457
0.804055	2.819478	-7.981796	0.262020	-1.668176	0.489837
-7.026595	-8.445645	5.258698	1.234483	-0.349190	0.200110
1.700270	-24.571187	5.210164	-2.088952	0.806145	0.272773
2.012359	1.097921	-9.757400	-0.485443	0.953303	-1.712888
-3.144804	-19.561950	-13.103324	-0.440227	-1.152218	0.706709
-2.977405	2.747069	2.177041	1.890439	-1.502218	-1.074833
-4.499599	-14.543768	15.116463	2.513675	0.586312	0.016589
-0.922149	-1.002336	6.743860	0.330493	-0.969710	0.000125
5.278651	-9.650264	3.863800	1.780567	-1.546352	0.919881
12.650245	-5.193478	-5.095146	0.768007	-2.147682	-1.555178
-1.130727	3.629205	19.056039	0.928576	-0.306141	-0.148093
-7.526815	3.747165	-6.188216	-0.867654	0.598976	-0.459430
2.491729	-13.306394	-5.691138	0.867686	0.435955	0.391168
-3.095218	14.078142	-15.021318	-0.003290	0.624420	-1.144239
-0.493149	4.611458	-15.530609	-1.585039	-1.349796	-1.583046
-8.723611	7.368480	-4.552092	1.142663	-0.847472	-0.096183
7.669997	6.518499	-2.109655	-0.303345	-0.705444	-0.279358
-9.710696	-11.456696	-0.467950	-0.183517	1.714204	0.723057
0.138499	-6.291912	-0.344507	-1.506805	0.525462	-0.360714
-0.997220	-4.729221	-0.561735	1.360756	1.576524	0.070566
11.114866	-3.958707	-17.307422	1.526107	0.428094	-0.177182
-14.472627	2.024404	1.173850	2.766533	1.291685	-0.229857
9.138937	6.470723	-3.043950	-1.362843	2.029899	-0.143535
-6.052927	3.375775	1.645651	0.521924	0.006704	-0.569672
-13.036704	5.325595	-14.686233	-1.265414	1.979579	-2.179174
8.182511	4.894293	0.934654	2.490370	0.725865	0.715393
-4.403122	-3.024349	7.062962	-0.057868	0.233892	1.274725
-9.390592	8.906323	-3.590327	-0.273303	1.909626	0.365309
-1.070124	-12.753707	-3.709068	-0.635348	-0.350432	-2.167042
-20.368085	16.172480	14.226321	-1.727507	0.507616	0.193188
0.395697	-4.376827	1.874522	-0.993798	-0.270333	0.124225
13.890462	11.777945	15.756026	1.144373	-0.554960	-0.321952
1.073601	16.308953	-5.176826	-2.026369	-0.234567	0.400010
0.532650	-14.068675	-1.854432	-0.314955	0.865639	1.298943
-2.527965	-22.618972	7.217372	-1.922556	-0.683909	0.788960
-8.000498	-10.063042	5.765667	-0.963288	-0.908552	-0.253110
11.456250	-2.600026	-2.168274	-1.383492	1.083259	1.497186
-16.419136	-9.595432	2.615847	-1.087819	0.677696	0.457208
1.034524	-22.434210	22.405257	0.574351	-0.769472	2.035250
-2.124638	3.369300	0.125948	0.839005	0.291532	1.120666
-0.524899	9.109125	-1.748108	1.008505	0.667130	-0.052276
-14.239909	10.089427	-3.116819	0.362991	1.231056	0.294336
0.380449	-2.635788	4.650716	0.744504	0.111115	-0.415845
0.532724	-5.876228	2.545467	0.075855	0.403456	0.748942
17.680831	1.531305	-5.800857	1.105114	0.731457	-1.378588
-2.877496	19.473478	2.889254	-0.138968	1.175382	-1.359881
-11.806243	3.528752	2.894177	-0.785149	0.789977	-0.995329
-2.065534	4.909133	-0.457176	-0.328082	-0.342138	-1.434687
16.736391	8.783939	9.536337	0.190210	0.025011	0.745816
64

-5.069085	-9.288621	1.448784	-1.992241	-0.174372	0.736779
6.603216	-12.116478	-13.647505	0.973763	-1.770819	0.787354
-24.102319	-26.482013	-16.054214	-0.830992	-0.588205	2.346985
14.003579	-7.494541	-18.953279	0.962738	-0.677602	-0.319456
-4.679902	-12.201594	-14.583491	0.518832	-0.031386	-0.991738
-13.562185	-6.938074	-9.443032	-0.419818	-0.280473	-0.303642
-11.721286	-1.098017	-12.640886	-0.492516	-0.297078	-0.172892
1.717274	-6.262501	-2.368011	0.921285	-1.470940	-0.086862
-8.083425	-4.539201	-5.638107	-0.338953	-1.996513	1.901002
-5.617611	1.834408	-2.753656	0.715459	0.113539	-0.443123
-8.576494	-13.027591	-16.221617	1.356602	-2.349386	-1.101390
2.870558	13.387312	-24.425069	-3.033111	0.687859	-1.366369
-7.474531	7.014044	-1.729612	-1.425410	-0.505658	-0.555947
-9.275935	-5.748113	7.475925	-0.604346	-2.037594	2.177499
-1.183286	2.875099	-9.366538	0.160392	-0.173369	1.587843
0.852941	2.503506	-7.877062	0.233974	-1.524690	0.543494
-6.852149	-8.529360	5.264294	0.794294	-0.419512	0.001191
1.330857	-24.424874	5.233472	-1.714971	0.598238	0.298772
1.915322	1.288623	-10.099953	-0.485182	0.953519	-1.712765
-3.142428	-19.784739	-12.957134	0.564187	-1.093410	0.766125
-2.596761	2.460561	1.958665	1.898129	-1.353687	-1.121487
-4.154603	-14.441914	15.144775	-0.868493	0.295607	0.555988
-0.575003	-1.191472	6.521407	2.030867	-0.914623	-1.192806
5.635184	-9.960077	4.045826	1.789823	-1.551776	0.900690
12.762733	-5.612695	-5.428803	0.426888	-2.049010	-1.693545
-0.964777	3.569392	19.058835	-0.206916	-0.533656	-0.462903
-7.695241	3.891614	-6.253779	-0.843805	0.803325	-0.254620
2.639225	-13.182725	-5.591595	0.422566	0.524539	0.482232
-3.107862	14.240680	-15.252787	-0.155526	0.963158	-1.197742
-0.808384	4.352469	-15.851184	-1.573844	-1.263433	-1.623727
-8.541797	7.152585	-4.656050	0.650413	-1.316667	-0.918120
7.623565	6.364318	-2.162159	-0.185877	-0.746453	-0.305313
-9.753874	-11.109803	-0.337266	-0.245551	1.751139	0.577742
-0.177298	-6.184210	-0.407963	-0.702903	0.805434	0.331223
-0.760292	-4.441422	-0.543912	1.048741	1.317002	0.091918
11.393361	-3.858630	-17.348189	1.248313	0.660307	-0.167201
-13.911954	2.280746	1.124460	2.795872	1.183627	-0.154358
8.874489	6.801946	-2.987175	-1.393950	1.643447	0.293149
-5.883423	3.771197	1.808535	0.893301	2.213447	0.986097
-13.127586	5.694788	-15.155808	2.172076	1.867137	-2.794588
8.680199	5.031414	1.049303	2.497125	0.649351	0.480214
-4.400072	-2.965335	7.306035	0.127804	0.353666	1.162885
-9.466510	9.285956	-3.515056	-0.526433	1.864784	0.380987
-1.219501	-12.739762	-4.214082	-0.743353	0.116501	-2.475556
-20.678324	16.283539	14.280743	-1.376059	0.605364	0.354854
0.227075	-4.426358	1.932004	-0.710305	-0.243061	0.417058
14.190438	11.695386	15.746110	1.576800	-0.364712	0.083478
0.676967	16.358514	-5.144151	-1.883876	0.359550	-0.016778
0.470816	-13.894063	-1.600251	-0.309479	0.893323	1.263235
-2.923977	-22.730806	7.346776	-2.067479	-0.491542	0.509232
-8.199165	-10.246779	5.718291	-1.043391	-0.936474	-0.207401
11.198849	-2.396728	-1.859858	-1.192473	0.936956	1.578237
-16.633711	-9.459697	2.706769	-1.059507	0.679886	0.447576
1.154775	-22.623039	22.841676	0.626867	-1.145844	2.247121
-2.006987	3.473564	0.326094	-0.086513	1.021506	0.737276
-0.338190	9.231975	-1.777261	0.894899	0.563880	-0.196001
-14.256789	10.325118	-3.062834	-0.633569	1.148763	0.235986
0.440587	-2.659181	4.696767	0.394785	0.063384	0.251241
0.550170	-5.797781	2.685441	0.089496	0.415165	0.663825
17.901544	1.678514	-6.078473	1.101058	0.740858	-1.400160
-2.906769	19.709675	2.618691	-0.154792	1.187093	-1.342947
-11.975523	3.676067	2.687683	-0.895520	0.671179	-1.072822
-2.083151	4.836238	-0.725060	0.119597	-0.375596	-1.272846
16.774433	8.788941	9.685500	0.190210	0.025011	0.745816
64

-5.471049	-9.318461	1.597573	-2.034834	-0.122177	0.753274
6.788123	-12.471349	-13.503476	0.874647	-1.571590	0.233068
-24.248403	-26.582559	-15.573455	-0.631712	-0.411370	2.436823
14.200816	-7.622628	-19.009562	1.004981	-0.637315	-0.258097
-4.566344	-12.209818	-14.772927	0.601695	-0.050393	-0.916539
-13.551147	-6.753839	-9.687911	0.227716	1.147438	-1.368684
-11.803443	-1.159529	-12.684095	-0.377320	-0.317467	-0.241403
1.869684	-6.543190	-2.385770	0.557627	-1.328493	-0.068205
-8.097601	-4.955005	-5.317644	-0.042189	-2.091955	1.552984
-5.474470	1.850436	-2.869053	0.724780	0.031380	-0.734974
-8.209607	-13.658294	-16.165593	2.007255	-3.342832	0.784469
2.268335	13.550346	-24.734266	-2.950551	0.957718	-1.744627
-7.784157	6.923733	-1.840416	-1.660414	-0.397896	-0.539805
-9.366591	-6.168185	7.913995	-0.261501	-2.173601	2.182901
-1.152086	2.847160	-9.053239	-0.030177	-0.009305	1.513947
0.898995	2.203002	-7.766951	0.228633	-1.486978	0.555727
-6.654399	-8.602933	5.283933	1.200250	-0.317357	0.198727
1.017976	-24.328883	5.373032	-1.123157	0.307986	0.811601
1.818285	1.479327	-10.442506	-0.485182	0.953519	-1.712765
-3.061536	-19.999616	-12.807661	0.243941	-1.041796	0.725163
-2.231700	2.208194	1.719265	1.715678	-1.160886	-1.302367
-4.301499	-14.384556	15.243732	-0.634076	0.278092	0.442287
-0.161793	-1.363141	6.297587	2.105855	-0.776913	-1.065650
5.994890	-10.271003	4.224018	1.804721	-1.559029	0.883017
12.932735	-5.941714	-5.569815	0.822020	-1.527175	-0.292761
-1.154443	3.426671	18.887757	-0.968085	-0.619613	-0.757276
-7.982929	3.984265	-6.461512	-1.632541	0.407577	-1.209657
2.652643	-13.089511	-5.501267	-0.326913	0.377623	0.419594
-3.161024	14.445165	-15.501819	-0.365671	1.044515	-1.273468
-1.124540	4.101135	-16.181861	-1.594241	-1.255662	-1.689538
-8.466764	6.839062	-4.915387	0.124614	-1.811899	-1.671455
7.575850	6.255554	-2.248445	-0.318460	-0.322097	-0.551842
-9.807216	-10.758240	-0.237944	-0.282878	1.758931	0.416040
-0.194387	-5.974046	-0.242728	-0.173176	1.042108	0.804882
-0.551527	-4.189901	-0.531395	1.100902	1.231406	0.007155
11.623110	-3.680198	-17.337811	1.115727	0.963033	0.253251
-13.408706	2.279512	1.293421	2.602049	-0.215576	1.078789
8.574027	7.136619	-2.944793	-1.613862	1.675749	0.183697
-5.705645	4.202707	1.999178	0.887064	2.130317	0.937611
-12.714454	6.042991	-15.705450	1.998011	1.650993	-2.704396
9.189598	5.158848	1.140523	2.641999	0.644606	0.480935
-4.336275	-2.883692	7.527612	0.060326	0.433904	1.067521
-9.579220	9.647044	-3.446671	-0.557434	1.709230	0.281208
-1.358170	-12.727134	-4.689705	-0.628921	-0.015703	-2.379684
-20.920196	16.416349	14.375717	-1.056099	0.741608	0.638088
0.092734	-4.485494	2.024380	-0.694227	-0.382072	0.453427
14.468884	11.616964	15.770980	1.195866	-0.419595	0.186548
0.303301	16.320557	-5.168891	-2.049220	0.099662	-0.376896
0.402967	-13.710100	-1.340569	-0.398334	0.939245	1.365546
-3.337156	-22.871151	7.480524	-1.568230	-1.096440	1.240727
-8.426432	-10.437434	5.689112	-1.248277	-0.962189	-0.068995
10.975264	-2.229102	-1.541380	-1.060552	0.735302	1.596263
-16.842244	-9.323478	2.793497	-1.021704	0.681868	0.415818
1.198322	-22.755233	23.054456	0.108821	-0.552786	0.795605
-2.030307	3.682230	0.465831	-0.014201	0.924474	0.730196
-0.158489	9.337055	-1.817319	0.913097	0.493349	-0.196795
-14.351480	10.550983	-3.011613	-0.314538	1.102207	0.278334
0.531949	-2.474985	4.720267	0.615437	0.904987	0.132592
0.566802	-5.702900	2.813530	0.080667	0.541345	0.618446
18.121014	1.828153	-6.361891	1.094019	0.758516	-1.436042
-2.939357	19.947746	2.352526	-0.169690	1.191875	-1.320313
-12.155357	3.797779	2.467072	-0.882733	0.555674	-1.121998
-2.036635	4.753772	-0.971390	0.322486	-0.463086	-1.197842
16.812475	8.793943	9.834663	0.190210	0.025011	0.745816
64

-5.885123	-9.335865	1.751478	-2.110732	-0.048883	0.793225
6.966465	-12.789640	-13.444539	0.946272	-1.669417	0.557086
-24.363166	-26.652197	-15.086794	-0.539768	-0.307469	2.425651
14.402726	-7.755516	-19.057648	1.008146	-0.696419	-0.223247
-4.442006	-12.220848	-14.953716	0.639392	-0.055636	-0.897610
-13.485689	-6.533092	-9.944682	0.416744	1.094608	-1.230565
-11.882826	-1.232082	-12.735911	-0.434540	-0.457514	-0.280259
1.949901	-6.801064	-2.389286	0.281368	-1.268480	0.036958
-8.105191	-5.321916	-5.017278	0.208954	0.065830	1.439721
-5.321691	1.836230	-3.059281	0.827836	-0.209680	-1.166137
-7.822590	-14.272555	-15.983248	1.822562	-2.802445	1.073565
1.700669	13.726269	-25.123850	-2.912342	-0.857964	-2.173992
-8.133948	6.852963	-1.942005	-1.826910	-0.317121	-0.470298
-9.392114	-6.610623	8.344723	-0.032560	-2.233962	2.125592
-1.211979	2.856103	-8.750747	-0.521660	0.110017	1.496364
0.944975	1.907432	-7.655042	0.233386	-1.472944	0.562745
-6.370874	-8.657631	5.344070	1.620122	-0.233780	0.400186
0.822473	-24.229409	5.479684	-0.908216	0.715578	0.216267
1.721217	1.670297	-10.785293	-0.486542	0.960640	-1.718654
-3.023086	-20.206683	-12.665682	0.187436	-1.051306	0.696770
-1.861687	2.001155	1.441508	2.383478	-1.032762	-1.407905
-4.421903	-14.331195	15.327573	-0.577753	0.258908	0.401162
0.276657	-1.479595	6.092828	2.287056	-0.397435	-1.020099
6.355772	-10.584584	4.400177	1.800149	-1.581091	0.882311
13.023802	-6.242435	-5.617222	0.125547	-1.454307	-0.161821
-1.344446	3.328476	18.754289	-0.957253	-0.358387	-0.608709
-8.307376	4.079403	-6.669759	-1.713179	0.548127	-0.928725
2.519433	-13.051934	-5.429932	-0.878532	-0.006954	0.262213
-3.244989	14.653241	-15.755155	-0.451325	1.037706	-1.254574
-1.450779	3.848189	-16.531092	-1.683808	-1.277242	-1.819435
-8.475653	6.439304	-5.301526	-0.220772	-2.164487	-2.068616
7.500106	6.228987	-2.376825	-0.136391	-0.193163	-0.743287
-9.865134	-10.408237	-0.169445	-0.292350	1.737225	0.274981
-0.249881	-5.766693	-0.089925	-0.350058	1.053056	0.752369
-0.343027	-3.961739	-0.516871	0.226236	0.572670	0.767974
11.887226	-3.561454	-17.274980	1.436781	0.375692	0.420563
-12.887983	2.255759	1.500929	2.179298	0.035732	1.000963
8.221132	7.473855	-2.904341	-1.963412	1.730974	0.219481
-5.528293	4.627436	2.185972	0.886658	2.121130	0.932619
-12.303958	6.370093	-16.237736	2.159456	1.648793	-2.586937
9.699156	5.271772	1.173551	2.108412	0.315630	-0.920938
-4.641089	-2.784586	7.746927	-1.684430	0.486456	1.084137
-9.685782	9.942449	-3.410002	-0.472986	1.260129	0.096272
-1.517655	-12.661626	-5.119513	-1.502455	1.668989	-1.309615
-21.067900	16.487591	14.469291	-0.225881	-1.016832	-0.452188
-0.014229	-4.566998	2.182271	-0.023880	-0.281150	1.898646
14.669956	11.531157	15.833875	0.837332	-0.430149	0.456196
-0.077948	16.380743	-5.242002	-1.458254	0.375544	-0.218162
0.342922	-13.496285	-1.078535	0.570294	1.699571	0.617806
-3.294926	-23.121014	7.719627	0.270811	-1.003306	1.027009
-8.705124	-10.629863	5.694875	-1.569277	-0.978759	0.139556
10.766643	-2.102908	-1.224254	-1.045771	0.520830	1.572198
-17.040047	-9.187334	2.870631	-0.949325	0.678441	0.345550
1.193224	-22.821061	23.274094	-0.092810	-0.237305	1.314314
-2.018277	3.836766	0.622853	0.112057	0.625516	0.851635
0.028990	9.431580	-1.855800	0.961249	0.456774	-0.191472
-14.407424	10.775604	-2.955532	-0.309758	1.188694	0.263999
0.672944	-2.368260	4.754189	0.754370	0.226366	0.180747
0.593821	-5.581391	2.934972	0.242464	0.667497	0.604091
18.339266	1.983487	-6.654014	1.087597	0.801966	-1.491243
-2.973594	20.187629	2.089285	-0.169981	1.211766	-1.315993
-12.321861	3.900272	2.242542	-0.763618	0.462127	-1.119189
-1.958745	4.645124	-1.206580	0.454854	-0.641646	-1.157071
16.850517	8.798945	9.983826	0.190210	0.025011	0.745816
64

-6.319687	-9.337594	1.921443	-2.255589	0.034880	0.935398
7.186948	-13.134826	-13.251000	1.177854	-1.744940	1.329087
-24.469981	-26.712038	-14.602071	-0.535454	-0.302677	2.426776
14.602710	-7.900137	-19.099280	0.990803	-0.743226	-0.195539
-4.310075	-12.229502	-15.133460	0.684836	-0.022113	-0.902442
-13.387777	-6.312092	-10.184356	0.554053	1.115188	-1.170611
-11.978288	-1.258132	-12.785045	-0.395170	1.181504	-0.104081
1.993106	-7.055826	-2.371514	0.165812	-1.292660	0.144197
-8.037740	-5.182665	-4.757808	0.346595	0.814813	1.036884
-5.135064	1.810975	-3.164707	0.852173	0.279486	0.299929
-7.502963	-14.808613	-15.729391	1.313059	-2.595616	1.460522
1.118807	13.472385	-25.595881	-2.805402	-1.142613	-2.466143
-8.516809	6.794151	-2.022897	-2.025773	-0.269919	-0.303606
-9.387571	-7.060977	8.766224	0.088845	-2.292568	2.095165
-1.311993	2.969983	-8.462282	-0.696013	0.677149	1.411430
0.993298	1.612066	-7.542058	0.254232	-1.482144	0.568235
-6.073781	-8.707325	5.414271	0.846726	-0.331086	0.075025
0.647447	-24.053336	5.456761	-0.848507	1.007210	-0.419308
1.621274	1.868857	-11.132939	-0.534273	1.061383	-1.772067
-2.971563	-20.430639	-12.530036	0.366772	-1.222382	0.649302
-1.405793	1.724283	1.171772	2.083587	-1.318817	-1.231562
-4.533967	-14.279816	15.405019	-0.544737	0.257117	0.374436
0.656646	-1.690830	5.917116	0.886183	-2.855332	-0.487082
6.712901	-10.906307	4.578430	1.766891	-1.647234	0.901015
13.016423	-6.521835	-5.643772	-0.137046	-1.342471	-0.121691
-1.544290	3.291969	18.637570	-1.051076	0.027979	-0.569298
-8.523279	4.140226	-6.793303	-0.007736	-0.163270	-0.189684
2.307004	-13.090346	-5.396239	-1.314774	-0.394219	0.052139
-3.336631	14.860759	-16.004264	-0.460602	1.037014	-1.239408
-1.803784	3.587100	-16.921767	-1.852896	-1.354778	-2.135232
-8.522238	5.998139	-5.713294	-0.110907	-2.140617	-2.017513
7.587370	6.129050	-2.572916	0.456203	-0.399938	-1.065975
-9.923065	-10.064217	-0.124955	-0.285529	1.702639	0.178023
-0.326117	-5.540265	0.071518	-0.384848	1.256350	0.899887
-0.363807	-3.903966	-0.299298	-0.014977	0.283539	1.092988
12.147063	-3.471578	-17.148450	1.129738	0.529242	0.849804
-12.456420	2.280371	1.700801	2.434354	0.158284	0.953639
7.768537	7.733443	-2.873661	-2.645238	-0.091340	0.013383
-5.350961	5.051662	2.372496	0.886658	2.121130	0.932619
-11.837937	6.703287	-16.718848	2.482875	1.656568	-2.177271
10.116025	5.323388	0.978883	2.037924	0.188113	-0.989985
-4.952627	-2.694022	7.961907	-1.470626	0.427555	1.068960
-9.764044	10.163236	-3.400185	-0.314976	0.968970	0.018297
-1.814851	-12.345921	-5.388955	-1.420215	1.372002	-1.438119
-21.331384	16.304780	14.294535	-1.643710	-0.696758	-1.032022
-0.000294	-4.646611	2.567855	-0.082581	-0.175863	1.659233
14.875015	11.401631	15.822970	1.732562	-0.898533	-0.557685
-0.128107	16.448279	-5.204340	0.130937	0.329499	0.314376
0.543738	-13.076182	-1.020475	1.039370	2.023321	0.253832
-3.361029	-23.205543	7.899292	-0.330725	-0.295492	0.648492
-8.957181	-10.681334	5.698874	-0.312209	1.547170	-0.411512
10.551778	-2.030963	-0.913781	-1.085691	0.375672	1.537037
-17.217493	-9.053571	2.924972	-0.807959	0.650719	0.170194
1.206524	-22.905390	23.558793	0.257466	-0.633099	1.583801
-1.991174	3.934428	0.819697	0.144653	0.350833	1.183419
0.224201	9.521852	-1.895731	0.983596	0.452614	-0.212723
-14.495049	11.041254	-2.918520	-0.404047	1.259125	0.132479
0.825892	-2.356261	4.790018	0.776639	-0.063341	0.193621
0.507432	-5.373275	3.009114	-1.321314	1.269750	0.250788
18.554267	2.156443	-6.962714	1.044660	0.965519	-1.618559
-3.006103	20.433959	1.824362	-0.151817	1.254170	-1.334178
-12.447955	3.973957	2.016117	-0.444202	0.237051	-1.168773
-1.854129	4.485652	-1.434147	0.589882	-0.990942	-1.114723
16.888599	8.804368	10.133530	0.190680	0.030433	0.752380
64

-6.793145	-9.319634	2.134926	-2.359987	0.079133	1.046295
7.218122	-13.290352	-13.205696	-0.349687	-0.593819	-0.162241
-24.579272	-26.778383	-14.113746	-0.565923	-0.384286	2.469156
14.799481	-8.050552	-19.137014	0.978749	-0.757330	-0.184123
-4.163329	-12.226254	-15.314717	0.797984	0.060384	-0.906130
-13.267021	-6.087862	-10.415854	0.650170	1.122844	-1.152372
-12.046723	-1.019493	-12.813649	0.391378	0.643410	-0.518767
2.014369	-7.329265	-2.320488	0.029232	-1.462525	0.394634
-7.976132	-5.005965	-4.571335	0.273659	0.929724	0.851741
-5.131815	2.065243	-3.199969	-0.128081	1.408483	-0.469376
-7.273302	-15.318442	-15.440900	1.048806	-2.555965	1.399809
0.574840	13.272687	-26.119597	-2.626954	-0.815060	-2.780577
-8.947391	6.750756	-2.047839	-2.233857	-0.166927	0.019116
-9.340495	-7.541572	9.177418	0.338897	-2.469538	2.010729
-1.462622	3.168545	-8.173464	-0.045111	2.318585	1.338095
1.050159	1.314038	-7.426838	0.331042	-1.498065	0.587956
-5.949835	-8.776788	5.414707	0.769926	-0.330507	0.071735
0.581148	-23.896946	5.419062	0.250417	0.540156	0.129316
1.495272	2.119185	-11.501240	-0.660330	1.414610	-1.934874
-2.910813	-20.678665	-12.393308	-0.508127	-0.908170	1.037315
-1.018146	1.503201	0.956264	1.832883	-0.978021	-0.958960
-4.640735	-14.227790	15.477636	-0.523837	0.265820	0.353225
0.841006	-2.246179	5.807428	0.851770	-2.623258	-0.040645
7.064809	-11.252931	4.758371	1.790880	-1.874690	0.869206
12.979113	-6.775512	-5.668056	-0.228391	-1.171886	-0.117191
-1.756760	3.280683	18.530823	-1.047214	-0.755232	-0.408481
-8.532814	4.096665	-6.797648	0.011194	-0.333703	0.132694
1.985715	-13.197514	-5.417213	-1.360877	-0.708891	0.267205
-3.428526	15.068351	-16.251991	-0.458890	1.041006	-1.240728
-2.171639	3.285582	-17.412383	-1.745488	-1.797081	-2.630845
-8.514513	5.616944	-6.102439	0.132690	-1.641401	-1.879592
7.803895	5.799878	-2.538667	1.289718	-2.115042	0.687613
-9.979640	-9.726417	-0.094865	-0.283825	1.680645	0.132145
-0.387933	-5.249371	0.275624	-0.209932	1.664082	1.110045
-0.343863	-3.860813	-0.071355	0.212770	0.082954	1.218250
12.335686	-3.357382	-16.932154	0.746729	0.584885	1.325628
-11.960171	2.264316	1.905469	1.670431	-1.208650	1.176537
7.258616	7.779904	-2.830890	-2.438438	0.722405	0.425126
-5.173059	5.475795	2.559445	0.895370	2.119521	0.938937
-11.331369	7.019792	-17.105292	2.540485	1.488755	-1.726064
10.491537	5.344531	0.747240	1.675976	0.060469	-1.329282
-5.238633	-2.611208	8.175241	-1.402371	0.404571	1.064477
-9.811663	10.335421	-3.401294	-0.155380	0.756255	-0.036601
-2.099086	-12.088418	-5.687540	-1.484231	1.290793	-1.504408
-21.647318	16.204288	14.063382	-1.510144	-0.338632	-1.282729
-0.244590	-4.345261	2.699227	-1.374713	1.750674	0.526420
15.279525	11.236569	15.779161	1.900078	-0.721628	0.059449
-0.186519	16.579931	-5.229545	-0.732451	1.035331	-0.605781
0.777520	-12.884926	-1.024058	1.201438	0.683136	-0.141521
-3.373867	-23.271359	7.964455	0.173461	-0.321966	0.020300
-9.041244	-10.388481	5.636187	-0.513042	1.436670	-0.214379
10.319548	-1.760356	-0.579583	-1.161229	1.560904	1.671757
-17.361392	-8.930903	2.929770	-0.768907	0.639770	0.030622
1.293827	-23.073991	23.921698	0.041245	-0.940482	1.491469
-1.913025	3.969816	1.030113	1.214104	-0.031290	0.082649
0.420210	9.615169	-1.942330	0.971201	0.483132	-0.258261
-14.417855	11.088849	-2.852812	0.526369	0.029405	0.247086
0.995718	-2.413029	4.799899	1.042666	-0.710320	-0.675499
0.477726	-5.456956	3.263995	-0.081069	-0.628435	1.482598
18.732900	2.394106	-7.330251	0.749238	1.481274	-2.032141
-3.033122	20.689169	1.556099	-0.116980	1.294016	-1.346272
-12.532436	3.980857	1.856570	-1.000727	-0.100332	0.340512
-1.735711	4.307252	-1.659086	0.554128	-0.171755	-1.233296
16.926783	8.811446	10.284897	0.191108	0.041087	0.761293
64

-7.160047	-9.392153	2.183063	-1.707567	-0.476281	0.026226
7.140656	-13.393955	-13.168062	-0.464629	-0.393568	0.504371
-24.697695	-26.870616	-13.610124	-0.272041	0.130096	2.283736
14.995555	-8.202478	-19.173501	0.986191	-0.762547	-0.180793
-3.984653	-12.205031	-15.493866	1.000626	0.148919	-0.880338
-13.127948	-5.865002	-10.648571	0.740881	1.100096	-1.183045
-11.930015	-0.932712	-12.942666	0.411142	0.383910	-0.564516
2.187595	-7.511893	-2.441082	1.274986	-0.653854	-1.081025
-7.903591	-4.827340	-4.438370	0.435071	0.863715	0.510998
-5.124679	2.306234	-3.315570	-0.178954	0.383885	-0.381297
-7.092544	-15.838604	-15.146414	0.785401	-2.678454	1.493896
0.068390	13.162353	-26.698269	-2.480277	-0.310641	-2.974829
-9.392455	6.715858	-2.051673	-2.196192	-0.124981	0.063035
-9.252078	-8.039707	9.551572	0.529081	-2.502476	1.688725
-1.354498	3.663949	-8.019041	0.577544	2.267848	1.141448
1.139048	1.014138	-7.304343	0.615319	-1.485480	0.651742
-5.752873	-8.838769	5.446599	1.173548	-0.289146	0.239547
0.638027	-23.738847	5.410517	0.323234	1.118552	-0.247717
1.173395	2.293337	-11.659209	-2.128996	0.587467	-0.113201
-3.065503	-20.858531	-12.167776	-0.663653	-1.040472	0.992042
-0.655392	1.309944	0.769655	1.851334	-1.014110	-0.983050
-4.743628	-14.173247	15.547008	-0.505731	0.279009	0.341852
0.997055	-2.787943	5.854141	0.782900	-2.879935	0.014935
7.347447	-11.576949	5.021117	0.942310	-1.267565	1.904487
12.927144	-6.977430	-5.684883	-0.285191	-0.815554	-0.025484
-1.969729	3.099162	18.457531	-1.050249	-0.737850	-0.394110
-8.521943	4.021633	-6.752434	-0.026365	-0.282682	0.318423
1.994567	-13.390763	-5.055361	-0.060393	-0.939671	1.937150
-3.520628	15.278803	-16.501507	-0.463641	1.069564	-1.258785
-2.582234	2.797893	-17.774100	-1.897690	-2.541430	-1.718708
-8.495815	5.311315	-6.472447	-0.007421	-1.553857	-1.837657
8.041611	5.393577	-2.406599	1.150935	-2.075724	0.691867
-10.041203	-9.383052	-0.064493	-0.359777	1.814201	0.220691
-0.409336	-4.875225	0.498813	0.018291	1.856396	1.166637
-0.274462	-3.894078	0.193558	0.522362	-0.222975	1.359313
12.444262	-3.246213	-16.624884	0.353837	0.515746	1.697972
-11.876053	1.959175	1.915323	0.146566	-1.435694	-0.216342
6.779075	7.902924	-2.736496	-2.335849	0.480740	0.535925
-4.990972	5.898776	2.749087	0.934078	2.106226	0.961444
-10.820940	7.294669	-17.433870	2.584043	1.221087	-1.581089
10.777229	5.366182	0.458563	1.111323	0.173871	-1.527387
-5.516705	-2.531152	8.387802	-1.382524	0.397477	1.061454
-9.822168	10.464399	-3.421114	0.064831	0.526364	-0.186925
-2.335594	-11.899658	-6.081679	-0.804957	0.514307	-2.576641
-21.937270	16.150557	13.795943	-1.404141	-0.231918	-1.374240
-0.519522	-3.990216	2.816562	-1.411782	1.889720	0.630132
15.616894	11.110465	15.832611	1.497724	-0.553061	0.470734
-0.287287	16.784627	-5.341552	-0.208374	0.969706	-0.484483
0.999267	-12.723928	-1.029539	1.023434	0.817106	-0.061407
-3.304188	-23.319753	7.908684	0.491901	-0.135691	-0.575108
-9.162227	-10.088491	5.617884	-0.708621	1.582937	0.055534
10.099846	-1.470494	-0.259505	-1.055351	1.392343	1.552766
-17.642907	-8.712785	3.092725	-1.705645	1.199707	0.995155
0.998590	-23.310310	23.818125	-1.552612	-1.573568	-0.962593
-1.661776	3.961416	1.015048	0.947090	0.165899	-0.464128
0.611151	9.716203	-2.000919	0.935816	0.529510	-0.331524
-14.339771	11.127632	-2.850325	0.288187	0.321528	-0.232215
1.220810	-2.553257	4.671422	1.140588	-0.719241	-0.198112
0.442894	-5.582527	3.571521	-0.099224	-0.714414	1.531688
19.091241	2.790048	-7.505615	2.003993	2.050518	-0.553622
-3.051989	20.952039	1.287323	-0.064644	1.345572	-1.333355
-12.741881	4.014569	1.882434	-0.773688	0.101522	-0.026387
-1.632568	4.320241	-1.916694	0.420429	0.052843	-1.302208
16.965018	8.820992	10.437922	0.191182	0.054454	0.768393
64

-7.529021	-9.460917	2.222814	-2.012886	-0.223651	0.365304
7.076468	-13.467189	-13.151510	-0.042218	-0.419958	-0.762199
-24.611026	-26.577586	-13.233885	0.472514	1.521390	1.834270
15.195893	-8.356022	-19.209015	1.027596	-0.773505	-0.172198
-3.761927	-12.168529	-15.667037	1.224858	0.210810	-0.864504
-12.969805	-5.649691	-10.891893	0.842330	1.047893	-1.254751
-11.873478	-0.860400	-13.042030	0.195618	0.338709	-0.455964
2.421851	-7.645217	-2.642513	1.121880	-0.669591	-0.974229
-7.819312	-4.630880	-4.355447	0.371982	1.165924	0.331893
-5.282193	2.077432	-3.316062	-0.704842	-1.404881	0.014077
-6.945678	-16.393862	-14.861109	0.712987	-2.778798	1.422079
-0.031908	13.250309	-26.898355	1.108401	1.069715	0.630290
-9.813707	6.709952	-2.008609	-2.022933	0.041096	0.317937
-9.159850	-8.550980	9.874639	0.653458	-2.374691	1.632597
-1.268565	4.122836	-7.780675	0.274325	2.379242	1.005031
1.309171	0.727798	-7.165670	1.034126	-1.421208	0.670188
-5.485929	-8.890968	5.511964	1.493932	-0.221422	0.435487
0.568020	-23.755008	5.119470	-0.551835	-0.449034	-2.149997
0.762287	2.403571	-11.670732	-2.014277	0.516843	-0.017060
-3.186903	-21.104470	-12.003736	-0.608335	-1.417801	0.658350
-0.413894	1.246658	0.808473	0.543033	0.417891	1.455664
-4.843485	-14.116445	15.615231	-0.494152	0.287318	0.342720
1.331801	-3.081759	5.976861	1.820353	-0.625245	1.046886
7.528210	-11.841532	5.367860	0.856347	-1.346981	1.646345
12.868008	-7.110031	-5.674999	-0.314665	-0.633334	0.045362
