64

3.655633	-1.879949	-1.274437	-0.026158	0.624288	-2.131158
-4.517268	-3.133323	4.946551	1.205698	-0.471350	-0.212625
1.875335	1.778075	-1.647275	1.321228	2.891517	2.254662
0.691461	0.370574	-2.746796	-0.893960	0.800684	1.019226
1.810393	1.056918	-3.709490	-0.562831	-1.450462	0.358952
-1.503721	1.368385	2.185991	-1.706920	0.845502	0.161645
-2.151188	-4.823872	3.512871	0.979583	0.762586	-0.668039
-3.658971	1.431650	-4.305689	-0.647053	0.879570	-0.983351
4.493543	4.729535	-1.166864	2.473549	2.248603	0.435234
3.163377	0.900435	-0.891331	-1.304402	-0.180866	-0.351434
2.006250	3.798455	-3.373374	2.153672	-0.062419	-1.071459
-1.130880	2.745558	-4.742257	-0.807463	-0.372969	1.118450
-3.295585	0.230723	1.922354	1.250580	0.242717	-2.608728
-2.728567	-0.802705	1.996046	-2.802341	-0.547535	0.168128
1.454418	2.922199	-3.951389	1.275761	1.668147	-1.058783
1.007356	2.811283	0.311360	-1.169959	0.210263	1.197975
0.791716	1.187918	-0.115335	-0.872943	-0.669775	-1.797348
3.333946	-4.465553	2.716156	-0.162532	-0.724062	1.244760
-3.309981	-0.010967	-3.454806	0.554420	-0.914299	-0.495546
-1.891095	0.825845	-0.552731	-1.454192	-0.672858	-0.182149
2.143115	0.947055	-1.118286	0.684778	-0.808269	1.224034
-1.589640	-1.636187	3.229648	-1.350755	1.444037	1.307165
-3.039366	0.332912	-2.437499	-0.018118	-0.839746	0.686115
2.746439	2.324791	-1.807984	-0.307822	0.233489	1.475308
-0.243179	4.282150	1.320930	-0.838170	0.802047	-0.201133
-0.292206	1.167631	0.235301	2.738010	-0.901712	-1.463548
-1.070881	-1.900911	-4.267963	0.653391	-1.152234	-0.817812
1.488701	1.956672	2.349671	-0.375065	-0.166474	-0.024973
-2.392383	1.518249	-2.181592	1.029351	-1.638335	-1.882806
-0.282734	-1.672722	4.914502	-1.152005	0.888374	1.044038
-0.933871	-1.498100	-2.894643	-1.083126	-0.389540	2.065507
-3.036828	-3.344239	2.856469	-0.810310	0.002612	-0.539695
4.480511	-0.890978	2.811377	0.224040	0.677328	-0.064920
-0.052111	2.736829	2.273452	0.214344	1.738757	0.450989
2.867092	-2.392603	3.512817	-1.024068	-0.707497	-0.856871
1.889677	-3.477051	-2.092133	0.566683	0.499746	0.555802
3.100480	1.327813	-3.711421	0.030685	-0.296028	-0.452453
-3.477199	-3.614587	-3.061393	1.049983	0.546963	0.494578
-3.559339	-0.723809	0.590082	-0.076721	-1.023037	-0.280126
-2.077388	3.146904	1.360404	-1.119627	-0.576107	-0.566784
-2.907391	-4.793027	1.884222	0.823324	0.420417	-0.458532
64

3.324066	3.813575	-3.178639	1.808199	0.584255	1.500788
-2.365361	3.932096	-4.572829	0.361845	-0.045072	-1.800442
1.873183	-1.442408	-0.379291	-1.797493	-1.067513	-0.970744
0.995049	1.407344	-4.545604	1.380775	-1.989492	-1.439740
1.677933	1.268474	0.216979	0.461935	-1.595766	-1.383534
-2.994513	3.702436	1.428769	-0.290079	0.388322	0.523233
-4.592044	-1.146751	2.626262	-0.115162	-0.695734	-0.246921
3.238133	3.794904	2.825983	0.428411	0.092667	1.014201
0.576021	-0.706409	2.060871	-0.448666	-0.185481	-0.085635
3.229835	-2.867261	4.411221	0.419401	1.165838	0.547931
-4.811637	-2.322597	-2.646092	-1.489468	-0.763511	-1.345205
-1.857099	3.707841	3.644450	2.181469	1.469189	0.613782
-0.664349	4.675240	4.408177	-1.135431	-0.064363	0.305984
1.904829	4.796015	-1.174167	-0.750308	-1.705976	2.370379
-0.212613	-4.739502	-1.685458	-0.028714	1.214860	-1.270696
4.002270	-2.873630	2.686130	0.136305	0.954747	0.485892
3.542926	4.295643	1.345643	0.483099	0.520229	0.802628
-4.835594	0.647217	-2.337157	0.134072	-0.873059	0.213676
2.753721	4.802685	-0.144380	-0.492767	1.131787	-0.115115
4.310233	0.585946	0.688277	0.419719	-1.068199	-1.131536
1.067378	-2.657278	-3.407329	1.022946	-1.300723	0.206766
-2.176089	0.531439	2.423278	0.742146	-1.663541	1.608515
0.658275	3.076549	-1.675550	-0.257667	0.913383	1.573155
3.649556	-1.755179	-1.700271	-0.027503	0.617888	-2.132867
-4.276047	-3.227815	4.904740	1.209396	-0.473503	-0.207242
1.777991	2.184849	-1.121958	-0.980798	1.595688	2.824292
0.525109	0.538568	-2.551928	-0.767402	0.870672	0.933755
1.695865	0.794446	-3.648400	-0.607323	-1.170577	0.215078
-1.662194	1.725092	2.216263	-0.362021	2.262103	0.129585
-1.957613	-4.678657	3.373431	0.961053	0.675373	-0.718338
-3.786665	1.601185	-4.497034	-0.632840	0.828504	-0.942700
4.985929	-4.821014	-1.078509	2.454788	2.246246	0.445313
3.243659	0.872953	-0.907375	0.836290	-0.084693	-0.001417
2.190256	3.837319	-3.576988	0.701095	1.050683	-0.375223
-1.297677	2.678406	-4.519125	-0.869889	-0.287038	1.108187
-3.085765	0.213411	1.392642	1.134594	-0.281577	-2.532058
-3.306997	-0.878067	2.015432	-2.971446	-0.192565	-0.025938
1.673887	3.200569	-4.197138	0.429637	0.529984	-1.964767
0.780406	2.822567	0.550553	-1.115954	-0.034642	1.190045
0.969119	1.061075	-0.672767	1.899813	-0.495200	-3.239765
3.305567	-4.607769	2.962481	-0.130202	-0.731279	1.214810
-3.196461	-0.177367	-3.529054	0.597529	-0.733226	-0.158386
-2.180669	0.693004	-0.594178	-1.448920	-0.662858	-0.231120
1.918410	0.791358	-0.898822	-1.613218	-0.547173	1.106399
-1.861847	-1.346566	3.489906	-1.366612	1.452781	1.298830
-3.030725	0.193463	-2.322093	0.116310	-0.575027	0.366468
3.025418	2.541761	-1.589717	1.806825	1.268805	1.005327
-0.410011	4.434098	1.283805	-0.826593	0.716334	-0.167539
-0.101809	0.976500	0.108381	0.017546	-0.977282	-0.178252
-1.029464	-2.186995	-4.319811	-0.215240	-1.730896	0.231368
1.406007	1.927890	2.339550	-0.447135	-0.120173	-0.072241
-2.208864	1.152870	-2.557481	0.780604	-2.020653	-1.854532
-0.422498	-1.435708	-4.971883	-0.276576	1.495497	0.117424
-1.149330	-1.581235	-2.498758	-1.072693	-0.430007	1.932926
-3.193858	-3.354929	2.745863	-0.758801	-0.108814	-0.566585
4.401693	-0.721611	2.819712	-1.360363	1.144736	0.211325
-0.005121	3.084384	2.357297	0.249208	1.738620	0.382796
2.671732	-2.522633	3.310681	-0.824326	-0.731695	-0.940280
2.002496	-3.388606	-1.978671	0.555685	0.419931	0.564189
3.068583	1.261918	-3.799420	-0.322100	-0.366715	-0.427862
-3.270959	-3.501368	-2.962128	1.011927	0.582521	0.496393
-3.564324	-0.917882	0.563455	0.033502	-0.894716	0.040526
-2.195332	2.951667	1.240117	0.199514	-1.608123	-0.676377
-2.742004	-4.717513	1.799657	0.828074	0.345216	-0.378913
64

3.643820	3.929706	-2.893535	1.432558	0.579469	1.360917
-2.277155	3.913642	-4.941794	0.545636	-0.129353	-1.905251
1.514861	-1.655338	-0.574983	-1.786594	-1.063054	-0.985487
1.294641	0.991758	-4.794478	1.593620	-2.158319	-1.029535
1.711387	1.004309	-0.024976	-0.275266	-0.827996	-0.677216
-3.026027	3.767059	1.528660	-0.022762	0.245881	0.467821
-4.626462	-1.268543	2.573412	-0.691883	-0.714307	0.055141
3.327019	3.838094	3.016750	0.456948	0.366917	0.901764
0.486288	-0.743506	2.043745	-0.448666	-0.185481	-0.085635
3.298832	-2.628691	4.482495	0.289371	1.198608	0.202572
4.887672	-2.474470	-2.912064	-1.526876	-0.745687	-1.309107
-1.410086	4.028161	3.784112	2.221687	1.684727	0.738226
-0.915952	4.650050	4.454104	-1.346820	-0.138507	0.204910
1.780246	4.459214	-0.673669	-0.547842	-1.676202	2.569148
-0.216731	-4.497921	-1.939090	-0.015536	1.202162	-1.265942
4.006914	-2.678786	2.796965	-0.090507	0.993296	0.616528
3.633216	4.398783	1.518729	0.423957	0.508744	0.934604
-4.802478	0.470690	-2.294680	0.196687	-0.891315	0.211581
2.629827	-4.978484	-0.191154	-0.701553	1.056535	-0.297177
4.391039	0.373394	0.457430	0.384320	-1.054630	-1.181559
1.274445	-2.919512	-3.360866	1.051806	-1.321503	0.263747
-2.033527	0.210046	2.727874	0.692358	-1.607112	1.495933
0.624815	3.247919	-1.348183	-0.068484	0.798290	1.715603
3.647703	-1.635055	-2.129643	0.017978	0.576061	-2.166517
-4.033315	-3.322651	4.863231	1.217560	-0.474644	-0.208724
1.569800	2.465999	-0.553412	-1.143147	1.276587	2.829620
0.385356	0.717339	-2.364176	-0.618792	0.934194	1.011357
1.566845	0.587673	-3.635917	-0.665501	-0.905718	-0.116258
-1.749315	2.173341	2.229218	-0.505517	2.299722	-0.069947
-1.764752	-4.559876	3.230072	0.972572	0.497866	-0.703087
-3.912725	1.765444	-4.684787	-0.628642	0.816882	-0.936331
-4.523253	-4.371789	-0.989389	2.454060	2.246122	0.445613
3.368502	0.857949	-0.901344	0.404662	-0.099281	0.075497
2.386321	4.065135	-3.617293	1.065043	1.033342	-0.235158
-1.480224	2.633674	-4.301556	-0.952162	-0.161629	1.061760
-2.867037	0.114169	0.902133	1.022437	-0.670738	-2.449575
-3.908973	-0.894424	1.976494	-2.593900	0.153328	-0.670169
1.744865	3.283841	-4.607266	0.431866	0.499446	-1.936680
0.559018	2.809577	0.788319	-1.092622	-0.083873	1.187754
0.767115	1.176985	-1.217518	-1.496857	0.793404	-2.537219
3.280560	-4.769796	3.200160	-0.118768	-0.923377	1.154715
-3.069584	-0.303080	-3.513637	0.684068	-0.509393	0.321679
-2.472749	0.558192	-0.642998	-1.478381	-0.693462	-0.244080
2.256913	0.470124	-0.825212	2.738842	-2.097857	-0.434536
-2.134755	-1.052255	3.747986	-1.358750	1.504706	1.270658
-2.984368	0.098946	-2.301577	0.362659	-0.390376	-0.179265
3.369304	2.787408	-1.382125	1.678898	1.210718	1.047506
-0.573325	4.568864	1.255134	-0.806300	0.633522	-0.115493
-0.068322	0.787143	0.052959	0.284177	-0.912003	-0.365929
-1.053364	-2.503555	-4.290613	-0.057674	-1.466764	0.089221
1.311485	1.908790	2.321489	-0.495507	-0.070480	-0.107657
-2.088915	0.711550	-2.915727	0.394361	-2.387588	-1.716184
-0.498147	-1.165268	-4.929877	-0.448006	1.239627	0.268582
-1.363793	-1.668077	-2.115101	-1.073783	-0.434965	1.908953
-3.339930	-3.387108	2.629475	-0.701085	-0.207768	-0.597156
4.160562	-0.510049	2.855142	-1.041450	0.959092	0.138937
0.045033	3.432581	2.424677	0.246126	1.743509	0.287051
2.545445	-2.680747	3.146892	-0.452089	-0.818810	-0.729478
2.110859	-3.302632	-1.869710	0.525937	0.445230	0.520490
2.979218	1.181070	-3.883173	-0.560615	-0.441854	-0.411624
-3.071693	-3.383011	-2.863440	0.983829	0.597899	0.489702
-3.546010	-1.071727	0.612868	0.142492	-0.621362	0.449364
-2.169708	2.641512	1.129781	0.077265	-1.502950	-0.361727
-2.577248	-4.653776	1.734659	0.818556	0.292469	-0.267256
64

3.912119	4.044401	-2.627891	1.274087	0.563097	1.310444
-2.133111	3.892524	4.659773	0.912113	-0.047395	-2.074478
1.159098	-1.868738	-0.773712	-1.768435	-1.074368	-1.002951
1.623652	0.549890	-4.951104	1.676010	-2.238716	-0.523940
1.662763	0.836692	-0.194505	-0.191287	-0.877815	-0.981616
-3.014682	3.811023	1.619499	0.127777	0.204642	0.450064
-4.915098	-1.478649	2.704292	-1.583633	-1.030153	0.664942
3.418490	3.955566	3.189934	0.460506	0.742487	0.818227
0.396554	-0.780602	2.026618	-0.448666	-0.185481	-0.085635
3.352214	-2.390806	4.502789	0.257070	1.177832	0.011834
4.573792	-2.616062	-3.167731	-1.620980	-0.654943	-1.243453
-1.155897	4.107005	3.621012	0.972333	0.128917	-1.149341
-1.031712	4.886182	4.810521	-0.472972	1.443393	2.129239
1.680593	4.126253	-0.159048	-0.435053	-1.635499	2.557043
-0.219455	-4.257368	-2.192494	-0.009997	1.205351	-1.269607
3.968820	-2.475517	2.930612	-0.266775	1.053971	0.714525
3.713215	4.498228	1.722167	0.375706	0.483147	1.108497
-4.757300	0.290978	-2.252565	0.252305	-0.906252	0.208980
2.471937	-4.784774	-0.254653	-0.921142	0.818704	-0.330717
4.461483	0.165245	0.213512	0.314275	-1.023463	-1.262400
1.488950	-3.185528	-3.299419	1.092229	-1.336992	0.356380
-1.901264	-0.128412	3.043027	0.600976	-1.808090	1.716467
0.636057	3.395756	-0.980442	0.199016	0.681659	1.995587
3.660018	-1.528684	-2.568755	0.112701	0.476240	-2.227693
-3.789343	-3.417610	4.820631	1.221183	-0.474890	-0.218928
1.314789	2.727214	0.004596	-1.427230	1.415051	2.751282
0.187669	0.779379	-2.374787	-1.553547	-0.626764	-1.606065
1.440486	0.426582	-3.702219	-0.568382	-0.722496	-0.554830
-1.863893	2.644414	2.178629	-0.626238	2.383022	-0.394414
-1.568431	-4.482024	3.093406	0.982111	0.285277	-0.677121
-4.038454	1.928821	-4.872053	-0.628642	0.816882	-0.936331
-4.032137	-3.922373	-0.900705	2.458402	2.248787	0.439157
3.489341	0.866292	-0.878759	0.958579	0.294173	0.153240
2.607072	4.258041	-3.668667	1.135354	0.918713	-0.264080
-1.675428	2.610278	-4.095146	-0.991344	-0.084718	1.006254
-2.679610	-0.042861	0.390254	0.842238	-0.858921	-2.712771
-4.284138	-0.792485	1.691603	-1.744699	0.464482	-1.600316
1.840837	3.394783	-4.979173	0.511552	0.591100	-1.807753
0.350715	2.791843	1.021623	-0.956913	-0.087509	1.122298
0.555093	1.459592	-1.491139	-0.454832	2.340384	0.256303
3.260307	-4.993103	3.419824	-0.085697	-1.246783	1.048062
-2.910872	-0.371344	-3.398537	0.742812	-0.336926	0.650805
-2.773758	0.408392	-0.675485	-1.519329	-0.831129	-0.021798
2.743305	0.040085	-0.891435	1.985926	-2.329095	-0.227622
-2.399437	-0.733411	3.985335	-1.254941	1.710606	1.049009
-2.883412	0.027416	-2.396176	0.643579	-0.308738	-0.639434
3.703366	3.030291	-1.175464	1.667590	1.223669	1.011218
-0.732851	4.689538	1.239528	-0.794439	0.577783	-0.035679
0.004094	0.611703	-0.032423	0.434371	-0.843382	-0.476852
-1.061787	-2.787600	-4.276071	-0.035904	-1.392656	0.064523
1.208145	1.899867	2.295830	-0.538869	-0.017465	-0.153488
-2.064772	0.197237	-3.241531	0.010138	-2.611326	-1.489117
-0.593061	-0.926342	-4.873703	-0.493296	1.167522	0.285085
-1.579745	-1.754957	-1.734293	-1.087501	-0.434042	1.899537
-3.474378	-3.435787	2.507364	-0.643845	-0.274493	-0.622367
3.971884	-0.333672	2.878045	-0.864530	0.808614	0.095798
0.089895	3.781434	2.471661	0.188641	1.744296	0.188771
2.484989	-2.842732	3.010261	-0.166779	-0.790024	-0.647675
2.211730	-3.210010	-1.771961	0.478791	0.478473	0.454707
2.845273	1.084388	-3.966070	-0.784684	-0.530804	-0.426200
-2.875745	-3.262602	-2.765306	0.981116	0.606186	0.495107
-3.513836	-1.159651	0.737932	0.144628	-0.248784	0.786164
-2.151491	2.346876	1.099170	0.102140	-1.423707	0.002648
-2.413648	-4.600506	1.693973	0.824323	0.239363	-0.137525
64

4.159385	4.152979	-2.363749	1.207490	0.516986	1.345160
-1.912681	3.900426	4.227806	1.291893	0.122434	-2.268481
0.808124	-2.086267	-0.976289	-1.739419	-1.100590	-1.022110
1.958151	0.108561	4.999442	1.653443	-2.136102	0.033630
1.620911	0.656995	-0.399524	-0.256132	-0.913249	-1.045056
-2.968576	3.844840	1.713641	0.382578	0.098177	0.510997
4.746070	-1.684538	2.827119	-1.662734	-0.943868	0.558244
3.557103	3.897366	3.281576	0.822250	-0.786688	0.225058
0.306816	-0.817667	2.009440	-0.448863	-0.184377	-0.087468
3.406271	-2.157741	4.487002	0.296965	1.152850	-0.182285
4.237536	-2.729310	-3.408716	-1.741204	-0.457531	-1.168719
-0.979240	4.149041	3.409079	0.789374	0.265604	-1.013360
-1.140534	-4.844276	-4.784163	-0.584191	1.298980	1.963375
1.585078	3.794252	0.331527	-0.137273	-1.045036	2.148184
-0.220233	-4.015435	-2.447482	0.002519	1.215430	-1.283326
3.916350	-2.247517	3.081241	-0.408986	1.109033	0.849124
3.783138	4.590032	1.966691	0.322937	0.425089	1.344976
-4.702137	0.108405	-2.210423	0.298885	-0.918619	0.216354
2.274340	-4.640349	-0.318165	-1.021969	0.671535	-0.309519
4.512380	-0.032992	-0.050484	0.177737	-0.949892	-1.386905
1.710717	-3.452937	-3.216868	1.123375	-1.333619	0.470425
-1.790953	-0.499615	3.404288	0.532033	-1.863205	1.841902
0.713629	3.519420	-0.529058	0.596887	0.552001	2.583131
3.694278	-1.450508	-3.020963	0.230103	0.287425	-2.294212
-3.545007	-3.512592	4.775650	1.221857	-0.474892	-0.230555
0.982662	3.036681	0.548798	-2.262757	1.004847	2.763727
-0.109648	0.672821	-2.675290	-1.447793	-0.486010	-1.460108
1.351292	0.292086	-3.856913	-0.291332	-0.635202	-0.981921
-2.006637	3.117295	2.060513	-0.842105	2.354372	-0.792536
-1.374141	-4.446450	2.952522	0.956510	0.062135	-0.748020
-4.164182	2.092197	4.940681	-0.628642	0.816882	-0.936331
-3.539575	-3.472164	-0.814441	2.468348	2.253703	0.421003
3.671389	0.889202	-0.838144	0.866331	-0.126516	0.253615
2.837954	4.437582	-3.720624	1.168242	0.883939	-0.254047
-1.874473	2.596133	-3.896949	-0.996673	-0.062532	0.980853
-2.482575	-0.297909	-0.023307	1.147739	-1.641290	-1.497441
-4.611365	-0.723571	1.356430	-1.488183	0.245996	-1.762023
1.947047	3.516674	4.662957	0.550341	0.625717	-1.781410
0.191570	2.778674	1.227554	-0.696742	-0.050914	1.007012
0.456519	1.906309	-1.451914	-0.506786	2.176085	0.184660
3.200217	4.969630	3.679283	-0.414846	0.342919	1.415130
-3.048140	-0.650247	-3.401125	-0.967094	-1.616226	-0.179988
-3.121714	0.305296	-0.807333	-1.958981	-0.225122	-1.233786
3.152537	-0.390237	-0.928031	2.146206	-1.941185	-0.140806
-2.638300	-0.382110	4.178967	-1.162004	1.761072	0.945867
-2.723266	0.014963	-2.442331	0.915014	-0.013817	-0.198473
4.037666	3.278671	-0.980775	1.675618	1.266175	0.927179
-0.896080	4.802115	1.244815	-0.858193	0.559368	0.101437
0.106183	0.448987	-0.135305	0.594737	-0.786888	-0.545316
-1.069240	-3.065948	-4.263262	-0.039278	-1.403777	0.066263
1.094646	1.903368	2.257206	-0.602070	0.059290	-0.240949
-1.811624	-0.161587	-3.479281	1.421215	-1.616067	-1.009290
-0.695573	-0.693854	-4.816537	-0.537238	1.164855	0.289543
-1.799164	-1.841958	-1.355837	-1.108461	-0.435172	1.885179
-3.597893	-3.495251	2.381274	-0.592965	-0.316437	-0.636584
3.808753	-0.184427	2.895052	-0.778122	0.689732	0.077065
0.111019	4.130771	2.506999	-0.011118	1.748313	0.191842
2.472552	-2.994273	2.885923	0.025009	-0.724528	-0.597272
2.300902	-3.113234	-1.688407	0.410075	0.481306	0.380745
2.660452	0.962919	-4.058984	-1.080554	-0.710364	-0.519980
-2.678389	-3.140228	-2.664367	0.992837	0.618701	0.518027
-3.505035	-1.175941	0.915192	-0.092100	0.064619	0.953179
-2.125533	2.085976	1.136294	0.154776	-1.156005	0.356894
-2.241727	-4.559534	1.680079	0.921484	0.160148	-0.001502
64

4.397483	4.248191	-2.082953	1.177819	0.424559	1.486237
-1.636530	3.933362	3.759683	1.145939	0.100834	-2.191310
0.463270	-2.308571	-1.182265	-1.711694	-1.122350	-1.038156
2.277627	-0.287579	-4.938631	1.517361	-1.785576	0.574500
1.549470	0.471614	-0.605961	-0.492093	-0.943599	-1.003453
-3.031773	3.952193	1.782139	-1.643496	1.312101	0.049510
4.670104	-1.705137	2.849099	-0.115924	0.107025	0.019366
3.708723	3.790493	3.321439	0.698905	-0.302761	0.152086
0.217021	-0.854386	1.991678	-0.448988	-0.183496	-0.088985
3.475803	-1.930880	4.416912	0.383925	1.123951	-0.472712
3.879497	-2.791507	-3.637038	-1.829542	-0.149114	-1.121553
-0.814221	4.222074	3.184742	1.158057	0.590048	-1.468724
-1.257504	-4.573228	-4.392623	-0.568788	1.499515	1.976902
1.678657	3.736269	0.689443	0.631406	-0.169004	1.815887
-0.219222	-3.770666	-2.707506	-0.000010	1.234335	-1.324518
3.552805	-2.188151	3.368244	-2.197910	0.092489	1.616764
3.842258	4.662359	2.263329	0.267549	0.277706	1.633770
-4.637211	-0.075978	-2.163030	0.357891	-0.922150	0.273799
2.067870	-4.508548	-0.380350	-1.038985	0.652219	-0.314193
4.519149	-0.212309	-0.347305	-0.165938	-0.846852	-1.602852
1.938199	-3.717812	-3.112024	1.153572	-1.311504	0.572887
-1.713626	-0.860579	3.799721	0.263615	-1.726046	2.091568
0.859133	3.629240	0.013673	0.737073	0.774691	2.111445
3.749600	-1.421257	-3.486118	0.309186	-0.012235	-2.357250
-3.300636	-3.607576	4.728617	1.224247	-0.475463	-0.237685
0.647932	3.197739	0.922986	-1.284760	0.692456	1.976773
-0.399036	0.574493	-2.969835	-1.462443	-0.513403	-1.496387
1.340013	0.171359	-4.089070	0.229924	-0.561491	-1.320836
-2.024095	3.494852	1.924593	1.313091	1.127870	-0.403899
-1.186922	-4.465001	2.785625	0.912405	-0.285563	-0.955416
-4.289911	2.255573	4.753414	-0.628642	0.816882	-0.936331
-3.042304	-3.018797	-0.734154	2.524675	2.300234	0.373280
3.852655	0.816090	-0.775680	0.980437	-0.612089	0.373995
3.072539	4.613995	-3.770352	1.174121	0.884571	-0.245858
-2.073799	2.583994	-3.701332	-0.996611	-0.060339	0.977539
-2.281480	-0.614865	-0.344078	0.911342	-1.581860	-1.688290
-4.876123	-0.687525	0.989980	-1.179000	0.132374	-1.893600
2.062507	3.645773	4.305326	0.613353	0.672099	-1.800363
-0.203417	2.651708	1.665631	-2.474933	-0.912447	2.727770
0.356230	2.339862	-1.410623	-0.494802	2.165680	0.228116
3.130625	4.998609	3.942541	-0.295754	-0.020779	1.232065
-3.202903	-0.938025	-3.406671	-0.628477	-1.297779	0.092283
-3.490658	0.236967	-1.042758	-1.773483	-0.426872	-1.174873
3.607041	-0.744105	-0.942409	2.438258	-1.593508	0.028234
-2.837621	-0.041906	4.347208	-0.848038	1.623257	0.765824
-2.543362	-0.017616	-2.522881	0.866022	-0.298361	-0.555039
4.373645	3.540279	-0.809802	1.683580	1.361520	0.762122
-1.091924	4.922050	1.290174	-1.137668	0.662298	0.388479
0.248686	0.296680	-0.250563	0.858908	-0.734389	-0.616376
-1.078218	-3.362482	-4.249646	-0.058669	-1.638884	0.068454
0.962406	1.927975	2.195340	-0.743665	0.200523	-0.383196
-1.557833	-0.489188	-3.669502	1.226493	-1.627235	-0.964833
-0.814951	-0.457518	-4.750114	-0.695479	1.194566	0.422537
-2.026311	-1.927847	-0.977970	-1.187687	-0.414752	1.912021
-3.712558	-3.561262	2.253196	-0.556424	-0.340811	-0.643197
3.657477	-0.055450	2.909852	-0.739415	0.605528	0.073584
0.068339	4.478311	2.560443	-0.416571	1.726944	0.334105
2.491061	-3.131821	2.771909	0.163996	-0.640379	-0.534134
2.375754	-3.020878	-1.619258	0.341417	0.435218	0.312716
2.404784	0.783503	-4.180452	-1.498205	-1.139036	-0.705398
-2.478596	-3.014519	-2.556287	1.005516	0.640494	0.567108
-3.557523	-1.142425	1.107983	-0.426377	0.248175	0.953329
-2.093334	1.875781	1.221703	0.167324	-0.978989	0.465153
-2.024761	-4.545990	1.692622	1.303067	-0.051045	0.129206
64

4.632557	4.316704	-1.754987	1.180138	0.249205	1.827391
-1.546203	3.902533	3.399047	-0.256305	-0.448222	-1.471389
0.122237	-2.535287	-1.392242	-1.701811	-1.146039	-1.065750
2.554066	-0.595835	-4.780487	1.240056	-1.308195	0.959728
1.415710	0.278518	-0.795840	-0.645374	-0.962363	-0.967274
-3.322286	4.207433	1.795242	-1.295012	1.256374	0.077028
4.619520	-1.689381	2.865931	-0.343690	0.067765	0.128251
3.838206	3.774584	3.333240	0.592148	0.140802	-0.033567
0.127223	-0.891085	1.973881	-0.448988	-0.183496	-0.088985
3.564134	-1.641348	4.510004	0.449523	1.581971	0.834568
3.511675	-2.785215	-3.861014	-1.830350	0.213179	-1.129509
-0.694020	4.325177	2.928183	0.404952	0.632033	-1.349028
-1.437501	-4.532379	-3.981568	-1.272147	-1.202636	2.165265
1.823868	3.691487	1.108162	0.614706	-0.267839	2.159612
-0.226031	-3.522074	-2.982748	-0.090611	1.249218	-1.447458
3.112246	-2.234355	3.485162	-2.209940	-0.388828	0.163781
3.889686	4.690057	2.626278	0.204923	-0.014727	1.993919
-4.549032	-0.255386	-2.085088	0.539888	-0.855727	0.545684
1.859842	-4.377825	-0.444449	-1.039157	0.657812	-0.327889
4.581901	-0.258353	-0.594214	1.143107	0.381030	-0.655947
2.173438	-3.976792	-2.990944	1.203278	-1.278252	0.627217
-1.665714	-1.192980	4.232142	0.243556	-1.603240	2.229434
0.964889	3.809381	0.321627	0.429896	0.845247	1.591254
3.808734	-1.459441	-3.964897	0.248758	-0.369617	-2.449981
-3.053816	-3.703034	4.682105	1.245186	-0.479354	-0.225966
0.387396	3.299036	1.404784	-1.189050	0.498780	2.409899
-0.701089	0.458706	-3.279612	-1.573691	-0.677018	-1.626941
1.317470	-0.016742	-4.372199	-1.211192	-1.809672	-1.483765
-1.775886	3.745015	1.847161	1.235326	1.396878	-0.336740
-1.004450	-4.586943	2.551376	0.949628	-0.987070	-1.406305
-4.415639	2.418950	4.566148	-0.628642	0.816882	-0.936331
-2.676985	-2.766058	-0.658912	0.071166	-1.356846	0.405837
4.066216	0.648502	-0.693189	1.033544	-0.820423	0.404196
3.306082	4.793245	-3.819413	1.156773	0.914415	-0.244790
-2.273121	2.571926	-3.505824	-0.996611	-0.060339	0.977539
-2.102948	-0.912969	-0.695958	0.952544	1.173217	-1.933402
4.901761	-0.662224	0.592696	-1.087413	0.149316	-2.129704
2.198721	3.790995	3.942035	0.772356	0.801198	-1.827914
-0.658291	2.482232	2.195601	-2.125784	-0.782537	2.581997
0.258450	2.774016	-1.362097	-0.484032	2.178040	0.254591
3.074234	4.967907	4.176186	-0.287057	-0.290757	1.102695
-3.311856	-1.180078	-3.374035	-0.479282	-1.140587	0.220969
-3.856676	0.139152	-1.296894	-1.940656	-0.560514	-1.390558
3.999376	-1.147454	-1.001296	1.292677	-2.690319	-0.746096
-2.995041	0.273385	4.497939	-0.751607	1.548104	0.750265
-2.377244	-0.096434	-2.650485	0.804762	-0.473424	-0.702023
4.709953	3.829249	-0.689307	1.673639	1.539220	0.410405
-1.117739	4.918181	1.297577	0.677925	-0.596324	-0.165476
0.456562	0.155107	-0.385158	1.017068	-0.709951	-0.655556
-1.018967	-3.430229	-4.239071	0.711016	1.080401	0.032119
0.789755	1.987938	2.106161	-0.986406	0.409921	-0.498397
-1.312493	-0.807577	-3.855482	1.060217	-1.714162	-0.539684
-0.965897	-0.214079	-4.662580	-0.622319	1.415888	0.107565
-2.127507	-1.819791	-0.593750	1.172226	0.500265	2.008762
-3.821398	-3.631135	2.123832	-0.531128	-0.360381	-0.650153
3.511460	0.059910	2.925527	-0.722155	0.551771	0.083456
0.191386	4.937894	2.471765	1.221974	2.751906	-0.971700
2.537924	-3.245745	2.677116	0.303610	-0.483208	-0.398773
2.438954	-2.941117	-1.561891	0.294711	0.360708	0.265893
2.202448	0.578046	-4.345351	0.261802	-0.434417	-0.927895
-2.276479	-2.883822	-2.436294	1.015206	0.664481	0.631195
-3.666090	-1.084378	1.292218	-0.629629	0.317612	0.889977
-2.056299	1.687325	1.318115	0.208234	-0.913278	0.498390
-1.941382	-4.435047	1.860037	-0.246477	1.026123	1.446067
64

4.850273	4.415352	-1.517428	0.938741	0.844602	0.230639
-1.600976	3.813893	3.074550	-0.087055	-0.343739	-1.918491
-0.219968	-2.767206	-1.611068	-1.727618	-1.172321	-1.130564
2.802876	-0.838535	-4.581680	1.381186	-1.218038	0.951057
1.485859	0.111286	-1.085030	0.634527	-0.800158	-1.581098
-3.569018	4.461497	1.811911	-1.196227	1.292918	0.090189
4.542232	-1.675234	2.896630	-0.416558	0.077162	0.172704
3.940214	3.734352	3.377525	0.421808	-0.778980	0.569709
0.037426	-0.927785	1.956084	-0.448988	-0.183496	-0.088985
3.621368	-1.319167	4.652745	-0.238402	1.993341	-0.812266
3.155353	-2.707232	-4.094050	-1.713487	0.562871	-1.214832
-0.559771	4.364804	2.654391	0.844150	-0.886917	-1.116047
-1.677509	-4.739369	-3.555292	-1.156673	-0.940502	2.109321
1.899428	3.640495	1.515197	0.155055	-0.221757	1.900066
-0.267150	-3.270106	-3.297139	-0.298552	1.270662	-1.648199
2.678927	-2.319262	3.518267	-2.138640	-0.510108	0.102242
3.924548	4.764359	2.992868	0.128771	0.984594	1.582534
-4.630402	-0.573172	-2.192447	-0.939381	-2.008237	-1.082534
1.653073	-4.244225	-0.512117	-1.025808	0.679433	-0.350337
4.912415	-0.349637	-0.782022	1.952888	-0.405399	-2.109274
2.421424	-4.230201	-2.865715	1.279090	-1.260821	0.615501
-1.611575	-1.501867	4.692925	0.306996	-1.488263	2.395868
1.066301	3.960717	0.692632	0.602934	0.671852	2.096885
3.834871	-1.565825	-4.443384	0.274571	-0.943636	-0.819673
-2.802624	-3.799289	4.638572	1.265715	-0.482812	-0.209204
0.168673	3.392944	1.880056	-1.045297	0.430040	2.380780
-1.033733	0.287884	-3.635279	-1.740330	-0.991473	-1.680806
1.105971	-0.376900	-4.671274	-0.847722	-1.712453	-1.484701
-1.497138	4.063058	1.813346	1.406780	1.488470	0.291589
-0.838363	-4.698753	2.184789	0.618858	0.710032	-1.908329
-4.541893	2.582683	4.378468	-0.634805	0.820352	-0.941655
-2.647379	-3.016178	-0.579283	0.278645	-1.077719	0.422855
4.188816	0.623117	-0.621155	0.559847	-0.029120	0.359238
3.531971	4.981805	-3.868994	1.092794	0.972841	-0.249598
-2.472444	2.559859	-3.310316	-0.996611	-0.060339	0.977539
-1.907167	-0.341917	-1.137276	0.965328	2.899313	-2.231765
4.678061	-0.642426	0.193006	-1.247113	-0.199155	-1.077230
2.382484	3.974771	3.581370	1.091127	1.046881	-1.751745
-1.070706	2.340637	2.699441	-2.027598	-0.625413	2.463280
0.162414	3.210588	-1.309391	-0.476969	2.186217	0.270818
3.010712	4.878085	4.376831	-0.349075	-0.611035	0.876431
-3.399348	-1.398626	-3.321419	-0.405676	-1.052097	0.300237
-4.077196	0.165109	-1.337023	-0.742388	0.479355	0.512085
4.281898	-1.644000	-1.133055	1.516997	-2.289222	-0.582270
-3.142556	0.581140	4.648369	-0.728277	1.535220	0.754468
-2.213439	-0.201329	-2.800069	0.863545	-0.559004	-0.789094
-4.937013	4.088288	-0.479313	1.915016	0.943830	2.007124
-1.009398	4.800400	1.336954	0.570512	-0.585432	-0.196431
0.460753	-0.012124	-0.420535	-0.262945	-0.872172	-0.041767
-0.872409	-3.244087	-4.194478	0.757743	0.862246	0.359615
0.571451	2.099605	1.999344	-1.183494	0.733701	-0.559266
-1.107946	-1.130482	-3.947432	1.013145	-1.354194	-0.563682
-1.085719	0.073897	-4.631930	-0.633207	1.244646	0.130420
-1.913750	-2.076562	-0.149151	0.950525	-1.494148	2.144300
-3.924182	-3.706781	1.993287	-0.495535	-0.401688	-0.654784
3.368337	0.166591	2.943235	-0.709202	0.518557	0.093436
0.350405	-4.535162	2.285469	0.402381	2.478431	-0.916579
2.609463	-3.317974	2.619485	0.393275	-0.226232	-0.164175
2.495566	-2.876075	-1.510767	0.275627	0.291724	0.249969
2.254423	0.443282	-4.542102	0.172525	-0.961720	-1.023880
-2.072290	-2.750238	-2.304756	1.030854	0.667427	0.683301
-3.800102	-1.019094	1.466690	-0.696543	0.330553	0.861101
-2.009377	1.509361	1.422278	0.258709	-0.869003	0.546329
-1.935443	-4.273041	2.145656	0.289512	0.599534	1.397628
64

-4.954032	4.575516	-1.438982	1.028071	0.754796	0.577834
-1.606240	3.683275	2.822766	-0.226964	-1.471336	0.478005
-0.574907	-3.002078	-1.849255	-1.863484	-1.158966	-1.277853
3.114084	-1.093138	-4.423413	1.508247	-1.175825	0.585922
1.578750	-0.052774	-1.377440	0.331714	-0.835751	-1.362054
-3.806148	4.730017	1.830912	-1.187453	1.420337	0.094783
4.455118	-1.657402	2.934371	-0.454434	0.103500	0.205128
4.004384	3.612396	3.491203	0.218561	-0.360037	0.551350
-0.052372	-0.964484	1.938287	-0.448988	-0.183496	-0.088985
3.502710	-0.862138	4.340647	-0.694844	2.240723	-1.362421
2.837825	-2.555293	-4.348313	-1.419756	0.983938	-1.317296
-0.472796	4.292398	2.432811	0.017133	1.546748	-0.310976
-1.906286	-4.921592	-3.135151	-1.137415	-0.894518	2.096026
1.897748	3.606565	1.874732	-0.097728	-0.134547	1.767225
-0.159509	-3.013932	-3.369033	0.880857	1.300973	0.240710
2.259609	-2.446356	3.515568	-2.037251	-0.764547	-0.138385
3.932900	4.930354	3.328814	-0.075864	0.577428	1.786471
-4.810942	-0.953791	-2.353495	-0.881337	-1.824269	-0.533220
1.450511	-4.105688	-0.584820	-0.998501	0.706890	-0.375712
-4.853915	-0.531257	-1.190620	0.004293	-1.820818	-1.719124
2.685908	-4.482782	-2.748521	1.368592	-1.266385	0.546519
-1.534880	-1.788983	-4.797203	0.320888	-1.520702	2.496430
1.202717	4.080082	1.148272	0.700520	0.550908	2.390680
3.879943	-1.818969	-4.424925	0.125026	-1.447311	0.087273
-2.547664	-3.895611	4.598101	1.286094	-0.476761	-0.198539
0.013332	3.370159	2.324763	0.206360	-1.922095	1.705525
-1.392874	0.110945	-3.597437	-1.519362	-0.748832	0.251560
0.958275	-0.706662	-4.964593	-0.662236	-1.599346	-1.450034
-1.328213	4.230917	1.896152	0.491786	1.568558	-1.761995
-0.682875	-4.457531	2.018280	0.700439	1.015460	-0.638107
-4.671129	2.747999	4.188578	-0.666794	0.838561	-0.961671
-2.563529	-3.199898	-0.482145	0.553567	-0.779819	0.558064
4.337537	0.563677	-0.551706	0.900559	-0.562211	0.340015
3.739419	-4.818578	-3.917462	0.974811	1.016905	-0.227106
-2.671766	2.547791	-3.114809	-0.996611	-0.060339	0.977539
-1.717525	0.235866	-1.598402	0.928684	2.866022	-2.405340
4.429210	-0.670524	-0.036153	-1.161257	0.006785	-1.407449
2.642022	4.205914	3.251557	1.512224	1.240047	-1.531620
-1.475580	2.237449	3.181584	-2.021815	-0.401097	2.351801
0.067346	3.648066	-1.254514	-0.474819	2.187739	0.275520
2.940252	4.730053	4.516263	-0.328077	-0.836728	0.500068
-3.478832	-1.602667	-3.254686	-0.400997	-0.991320	0.366225
-4.117690	0.351168	-1.295184	0.694569	1.741292	-0.138650
4.596300	-2.075288	-1.244492	1.611268	-2.038367	-0.554758
-3.287082	0.888501	4.799589	-0.716414	1.538142	0.756902
-2.020673	-0.311692	-2.963242	0.735027	-0.735405	-0.497845
-4.561720	4.285909	-0.109717	1.829676	1.035477	1.668729
-0.770936	4.777879	0.960952	1.307881	-0.023119	-1.884657
0.441362	-0.182556	-0.453006	0.031760	-0.836405	-0.264165
-0.898677	-3.066396	-4.369524	-0.544278	0.957126	-1.420944
0.320432	2.289941	1.891267	-1.319499	1.182738	-0.488988
-0.921638	-1.369510	-4.087636	0.995726	-1.018824	-0.605476
-1.219397	0.244229	-4.961591	-0.686608	0.713673	-1.953012
-1.749018	-2.405545	0.258840	0.703703	-1.777814	1.931566
-4.019365	-3.797051	1.861987	-0.454707	-0.529495	-0.658104
3.227799	0.267094	2.963893	-0.695386	0.481297	0.121042
0.376901	-4.065930	2.097129	-0.047820	2.246216	-0.963182
2.685798	-3.334789	2.614526	0.344555	0.054406	0.116728
2.549798	-2.823429	-1.460522	0.266805	0.237088	0.254591
2.282989	0.210266	-4.748790	0.133128	-1.326169	-1.038733
-1.857190	-2.618652	-2.162860	1.167668	0.634009	0.743833
-3.942432	-0.953062	1.638289	-0.724636	0.328575	0.857522
-1.954646	1.338736	1.536751	0.284034	-0.839596	0.595643
-1.828500	-4.187132	2.412758	0.781111	0.285892	1.259175
64

-4.741154	4.721944	-1.300346	1.094443	0.716628	0.782666
-1.613811	3.394324	2.891827	0.078581	-1.480404	0.299577
-0.937174	-3.246550	-2.126586	-1.180997	-1.750912	-1.499138
3.302829	-1.235108	-4.335857	0.698430	-0.668973	0.316013
1.629103	-0.221721	-1.636154	0.187191	-0.851867	-1.235130
-4.047909	-4.955059	1.845928	-1.213294	1.488200	0.060872
4.361236	-1.632901	2.977900	-0.480924	0.142686	0.226296
4.034813	3.583771	3.602649	0.126086	0.044891	0.576592
-0.142169	-1.001183	1.920490	-0.448988	-0.183496	-0.088985
3.351143	-0.417676	4.092653	-0.842535	2.263111	-1.201872
2.605272	-2.307350	-4.612764	-0.879240	1.475629	-1.297259
-0.398385	4.634647	2.411308	0.271939	1.786601	-0.297838
-2.133539	4.899869	-2.715882	-1.134017	-0.889606	2.097800
1.911516	3.558412	2.273261	0.228100	-0.326646	2.191519
-0.017943	-2.750203	-3.335129	0.552268	1.347103	0.126626
1.871095	-2.622901	3.464037	-1.834554	-0.988372	-0.367038
3.875763	4.989441	3.695669	-0.536125	0.001167	1.840452
-4.983121	-1.326770	-2.444818	-0.867221	-2.102569	-0.786639
1.253795	-3.961173	-0.662125	-0.969499	0.735372	-0.396734
-4.860634	-0.871659	-1.508892	-0.057627	-1.467800	-1.077883
2.969271	-4.736183	-2.649721	1.462544	-1.262058	0.438878
-1.647447	-2.177905	-4.433989	-1.634657	-0.874431	1.887113
1.301516	4.214187	1.599497	0.312028	0.785789	2.138841
3.961253	-2.227278	-4.416107	0.328646	-2.216284	0.016645
-2.286887	-3.988501	4.558641	1.325800	-0.447219	-0.196154
0.029827	3.072957	2.719599	-0.073007	-0.913927	2.344397
-1.452590	0.130379	-3.830110	-0.128098	0.172074	-1.405452
0.833634	-1.021042	4.748591	-0.593213	-1.556220	-1.416547
-1.293727	4.566262	1.483897	0.388305	1.840610	-1.982422
-0.586382	-4.330068	1.894300	0.319732	0.307816	-0.559086
-4.816636	2.922796	3.990781	-0.825669	0.930746	-1.026820
-2.428172	-3.334759	-0.352667	0.795914	-0.582061	0.746326
4.533919	0.400587	-0.483331	1.055721	-0.923229	0.309458
3.921620	-4.615109	-3.956305	0.851762	1.010386	-0.157018
-2.871038	2.535662	-2.919264	-0.994693	-0.061921	0.978805
-1.537518	0.795883	-2.101915	0.871947	2.729297	-2.604045
4.218274	-0.633418	-0.361228	-0.965427	0.231866	-1.776954
2.987432	4.460955	2.973450	1.927456	1.288756	-1.219190
-1.877786	2.181787	3.638449	-1.992168	-0.160824	2.213602
-0.027814	4.086022	-1.198637	-0.476976	2.195248	0.288364
2.892623	4.557680	4.575793	-0.113047	-0.854845	0.101289
-3.562343	-1.795403	-3.175272	-0.439651	-0.933573	0.431374
-4.010133	0.668075	-1.318899	0.429556	1.486198	-0.099177
4.923531	-2.456637	-1.362383	1.653676	-1.765343	-0.641098
-3.428967	1.196401	4.950582	-0.700908	1.542063	0.750267
-2.105486	-0.629024	-2.792202	-0.544495	-1.649121	1.039096
-4.201969	4.498763	0.204994	1.774561	1.092555	1.517961
-0.524664	4.774843	0.661354	1.153268	0.006743	-1.201503
0.463552	-0.348008	-0.519617	0.175486	-0.820118	-0.391523
-0.965487	-2.881268	-4.632330	0.713733	-0.135752	-1.385411
0.070125	2.464708	1.734227	-1.171060	0.481938	-1.172470
-0.571264	-1.470402	-4.058168	1.838787	-0.504609	0.275488
-1.360936	0.379256	4.677249	-0.725164	0.653972	-1.684435
-1.630294	-2.780819	0.622389	0.488106	-1.964380	1.701143
-4.105493	-3.934821	1.730748	-0.429072	-0.614883	-0.674981
3.091377	0.353778	2.999832	-0.659809	0.357860	0.279677
0.356169	-3.628299	1.903478	-0.202092	2.099575	-0.969309
2.738146	-3.300445	2.664941	0.161848	0.274121	0.379427
2.601977	-2.780385	-1.408529	0.253709	0.195414	0.265517
2.316441	-0.078295	-4.961642	0.237600	-1.555416	-1.113313
-1.628678	-2.477428	-2.008074	0.545318	1.251379	0.811977
-4.089441	-0.888039	1.810678	-0.744829	0.320808	0.868695
-1.896416	1.172833	1.658998	0.296877	-0.821055	0.622833
-1.623847	-4.152428	2.640756	1.259639	0.071312	0.999834
64

-4.518042	4.863865	-1.132519	1.133760	0.706643	0.884276
-1.587608	3.081136	2.961404	0.179132	-1.641296	0.401842
-1.154940	-3.601098	-2.433300	-1.123787	-1.629833	-1.512551
3.429740	-1.431371	-4.298809	0.539430	-1.278246	0.044503
1.657510	-0.393057	-1.874129	0.103034	-0.860764	-1.148920
-4.279956	-4.994771	1.895244	-1.129014	-0.573583	0.201444
4.263912	-1.600688	3.023231	-0.489067	0.177446	0.223215
4.065816	3.624462	3.724785	-0.029817	0.481100	0.624818
-0.231895	-1.038212	1.902675	-0.447580	-0.189826	-0.089388
3.165374	0.017511	3.911617	-0.744552	1.442923	0.579231
2.481941	-1.976701	-4.857487	-0.382068	1.815262	-1.137573
-0.362741	4.932629	2.355611	0.173626	0.852154	0.038034
-2.359528	4.722693	-2.296144	-1.125041	-0.880672	2.098680
1.949952	3.517151	2.701594	0.115761	-0.045279	2.044965
0.065124	-2.462439	-3.325912	0.295540	1.553874	-0.060492
1.529437	-2.834669	3.373404	-1.580504	-1.109091	-0.526361
3.716997	4.927627	4.049681	-0.953572	-0.579638	1.624048
4.846972	-1.792496	-2.653531	-0.750442	-2.359717	-0.949020
1.061667	-3.813240	-0.742928	-0.955399	0.738822	-0.409491
-4.878938	-1.136351	-1.644027	-0.186226	-1.373355	-0.642307
3.268905	-4.985820	-2.572216	1.527633	-1.232918	0.341089
-1.995214	-2.297229	-4.036812	-1.604894	-0.614954	1.968138
1.369231	4.354882	2.045845	0.401442	0.573138	2.356545
3.977911	-2.629781	-4.412781	-0.101123	-1.808041	0.026228
-2.015713	-4.072974	4.518882	1.390589	-0.394998	-0.205312
0.004088	2.885312	3.150547	-0.190453	-0.943477	2.016275
-1.481999	0.157996	-4.114761	-0.152975	0.134491	-1.463529
0.718833	-1.332775	4.470443	-0.556202	-1.569555	-1.360684
-1.165823	4.973446	1.137621	0.850751	2.232224	-1.467318
-0.557260	-4.214428	1.740905	-0.115972	1.269465	-1.241298
4.987848	3.126308	3.777266	-0.920945	0.991142	-1.074153
-2.246293	-3.437511	-0.178498	1.021941	-0.459089	1.013056
4.777412	0.266369	-0.433750	1.250124	-0.665004	0.181154
4.082931	-4.414946	-3.981144	0.768609	0.996085	-0.098996
-3.068602	2.522637	-2.722895	-0.979565	-0.072056	0.984765
-1.366389	1.334914	-2.630385	0.841204	2.674838	-2.670689
4.020491	-0.646848	-0.732931	-0.889318	-0.116266	-1.921219
3.399436	4.715175	2.779868	2.150261	1.244810	-0.693214
-2.269538	2.164293	4.068031	-1.928113	-0.048057	2.097306
-0.123510	4.527832	-1.135185	-0.479931	2.227688	0.366280
2.908456	4.398301	4.558345	0.230134	-0.763402	-0.227524
-3.657873	-1.975891	-3.080568	-0.524240	-0.873480	0.517427
-3.935505	0.958419	-1.333889	0.327445	1.425990	-0.052119
-4.746248	-2.781018	-1.505466	1.639048	-1.488941	-0.793622
-3.566282	1.506085	-4.901546	-0.664494	1.558153	0.725084
-2.206710	-0.955053	-2.595227	-0.486159	-1.663647	0.959077
-3.852155	4.725257	0.512746	1.711541	1.178403	1.599502
-0.294706	4.784926	0.442510	1.162215	0.091514	-1.046364
0.507681	-0.511069	-0.606973	0.259643	-0.811222	-0.477733
-0.775405	-2.941562	-4.906780	0.886481	-0.211851	-1.266520
-0.164027	2.579842	1.536414	-1.171031	0.628546	-0.855614
-0.217405	-1.613483	-4.002128	1.758199	-0.913682	0.318420
-1.508971	0.509723	4.359413	-0.755450	0.657366	-1.501144
-1.550448	-3.190055	0.938241	0.328449	-2.137866	1.457129
-4.201044	-3.726969	1.543146	-0.489255	1.373290	-0.999356
2.951744	0.436822	3.027803	-1.023583	1.083679	-1.166417
0.277972	-3.243936	1.711502	-0.578676	1.731722	-0.945769
2.746345	-3.231767	2.761349	-0.083298	0.395580	0.569131
2.650719	-2.744330	-1.354357	0.231210	0.168459	0.276479
2.393536	-0.405174	4.791755	0.550212	-1.681221	-1.375875
-1.534493	-2.215698	-1.850095	0.502793	1.212784	0.714543
-4.240754	-0.825038	1.986138	-0.769752	0.308320	0.886694
-1.836028	1.010243	1.784806	0.307254	-0.803839	0.633233
-1.325938	-4.157406	2.804350	1.725035	-0.131048	0.607964
64

-4.287632	-4.993885	-0.950732	1.171847	0.718214	0.924300
-1.539716	2.744489	3.050135	0.308605	-1.714014	0.478192
-1.381530	-3.917238	-2.733579	-1.139907	-1.553951	-1.495626
3.511551	-1.733089	-4.321486	0.278862	-1.706869	-0.271711
1.672160	-0.565831	-2.096856	0.048425	-0.866721	-1.079495
-4.492548	4.914312	1.902184	-0.984304	-0.377863	-0.110793
4.167043	-1.562988	3.066216	-0.477439	0.198214	0.206266
3.882151	3.855912	3.864202	-1.239413	1.491710	0.772187
-0.320999	-1.078210	1.884522	-0.443721	-0.212833	-0.093242
3.010966	0.254819	4.113293	-0.871544	1.108148	0.958389
2.444188	-1.591720	4.937209	-0.070278	1.151598	-0.516850
-0.356713	-4.871427	2.349266	0.039716	1.071812	-0.322014
-2.584564	4.547789	-1.876514	-1.130069	-0.868856	2.098002
1.955345	3.542989	3.090259	-0.044652	0.292882	1.864925
0.167900	-2.345987	-3.155116	0.632709	0.001544	1.416851
1.236151	-3.058686	3.258869	-1.366968	-1.113191	-0.604433
3.679886	4.878004	4.255069	0.268171	-0.110583	0.656308
4.729411	-2.249994	-2.802453	-0.416583	-2.206381	-0.563301
0.869663	-3.668432	-0.825448	-0.972713	0.698624	-0.414697
-4.938801	-1.438106	-1.796276	-0.396894	-1.643270	-0.882615
3.577901	4.770763	-2.510471	1.557308	-1.202497	0.283582
-2.311560	-2.418891	-3.636706	-1.592948	-0.585159	2.061718
1.464651	4.438535	2.541442	0.546132	0.273693	2.582243
3.938582	-2.961176	-4.399942	-0.259570	-1.555155	0.124834
-1.728412	-4.145269	4.474873	1.488846	-0.324367	-0.238527
-0.047641	2.699565	3.542212	-0.330320	-0.917020	1.913315
-1.512756	0.189826	-4.419667	-0.155509	0.187494	-1.592129
0.611655	-1.651565	4.205021	-0.518213	-1.624896	-1.290270
-0.983935	-4.589998	0.829982	0.793125	1.890821	-1.897820
-0.565147	-3.899973	1.532996	0.677310	1.837893	-0.310915
4.945486	3.249221	3.560290	-0.098414	0.564309	-1.074826
-2.018914	-3.526960	0.062256	1.261109	-0.469130	1.421527
-4.993179	0.106528	-0.418387	1.063690	-0.884441	-0.015956
4.230249	-4.207625	-4.001406	0.697989	1.132593	-0.125430
-3.262971	2.506046	-2.525070	-0.967942	-0.096458	0.997538
-1.200835	1.868164	-3.167444	0.815981	2.658292	-2.694489
3.885954	-0.651190	-1.116375	-0.491878	0.021989	-1.909500
3.834141	4.953743	2.686569	2.184312	1.132837	-0.285543
-2.657967	2.149573	4.488070	-2.008929	-0.124910	2.145629
-0.218487	4.978917	-1.036327	-0.455001	2.278461	0.679127
2.827336	4.130472	4.574101	-0.679761	-1.698694	0.168316
-3.774710	-2.147484	-2.967747	-0.646514	-0.855366	0.615386
-3.875694	1.240623	-1.341279	0.280401	1.403762	-0.030157
-4.423862	-3.056638	-1.680395	1.580580	-1.273587	-0.958176
-3.686817	1.822812	-4.764787	-0.496052	1.623914	0.610120
-2.295392	-1.311549	-2.398734	-0.361158	-1.938582	1.030858
-3.526179	4.970383	0.855152	1.524899	1.266510	1.825458
-0.084040	4.819070	0.236205	0.884884	0.295793	-1.057734
0.565698	-0.672700	-0.709516	0.317548	-0.805442	-0.545664
-0.603284	-2.978073	4.849152	0.843028	-0.171823	-1.199703
-0.399966	2.707252	1.374712	-1.190276	0.639881	-0.777218
0.079998	-1.611003	-4.134420	1.333398	0.557702	-1.286777
-1.663059	0.643353	4.075530	-0.782648	0.677524	-1.340895
-1.481706	-3.653709	1.205412	-0.016475	-2.374751	1.017551
-4.299377	-3.484777	1.348590	-0.487634	1.096875	-0.958530
2.731457	0.681936	2.734430	-1.076976	1.180096	-1.334754
0.125326	-2.937462	1.524924	-0.948146	1.328794	-0.919305
2.706481	-3.147737	2.886062	-0.304798	0.435005	0.662942
2.694579	-2.711913	-1.298120	0.209591	0.158916	0.285261
2.529133	-0.740143	4.496555	0.836627	-0.807850	-1.925907
-1.444927	-1.966008	-1.725645	0.342890	1.332048	0.506268
-4.398069	-0.765163	2.165733	-0.805694	0.288967	0.910380
-1.773403	0.851280	1.912426	0.320152	-0.787079	0.647137
-0.940251	-4.203775	2.876977	1.921204	-0.125176	0.260390
64

-4.046847	-4.849151	-0.767225	1.248683	0.721175	0.896828
-1.461850	2.397150	3.152266	0.469821	-1.764069	0.549742
-1.611292	-4.224854	-3.032081	-1.159690	-1.524221	-1.489980
3.547410	-2.109717	-4.399581	0.080373	-2.042201	-0.483617
1.678076	-0.740721	-2.306319	0.011644	-0.884742	-1.016165
-4.680706	4.848877	1.868555	-0.957012	-0.270238	-0.157139
4.072995	-1.520666	3.105928	-0.465117	0.230131	0.192219
3.648258	3.965592	3.942277	-1.096699	-0.138075	0.068175
-0.408928	-1.125982	1.864624	-0.431800	-0.279332	-0.109729
2.833423	0.485081	4.293757	-0.874516	1.243255	0.860727
2.426817	-1.661940	-4.978310	0.074904	-0.489801	0.538436
-0.220641	-4.779738	2.099579	0.783318	0.524919	-1.553843
-2.815398	4.375802	-1.455479	-1.193887	-0.843143	2.120285
1.960735	3.595383	3.480904	0.224443	0.048673	2.180563
0.291017	-2.325775	-2.900236	0.610476	0.162597	1.190621
0.972479	-3.275309	3.137000	-1.302118	-1.044628	-0.601616
3.687818	-4.989400	4.462650	-0.107995	1.201394	1.320895
4.682779	-2.670737	-2.885900	-0.043267	-1.985644	-0.281262
0.665792	-3.541503	-0.907761	-1.099571	0.537520	-0.401825
4.971827	-1.796530	-2.002316	-0.462723	-1.963426	-1.204982
3.890432	4.532308	-2.456437	1.566011	-1.184280	0.260743
-2.644566	-2.522345	-3.198259	-1.769455	-0.413095	2.373546
1.567424	4.505094	3.053655	0.399454	0.581614	2.446427
3.857635	-3.206339	-4.379402	-0.995945	-0.067478	-0.278784
-1.416635	-4.199772	4.420985	1.644146	-0.207536	-0.317327
-0.129576	2.516593	3.916640	-0.491791	-0.918041	1.827603
-1.545652	0.234326	-4.753762	-0.178922	0.261022	-1.752927
0.507822	-1.987655	3.955627	-0.535873	-1.760955	-1.203368
-0.772064	-4.257167	0.407684	1.183336	1.674134	-2.096738
-0.299097	-3.676571	1.572335	0.995506	0.185854	0.334669
4.892922	3.383946	3.355323	-0.391720	0.762367	-0.981902
-1.732970	-3.642968	0.382897	1.592779	-0.640051	1.516376
-4.788582	-0.075172	-0.432775	0.995799	-0.919692	-0.112343
4.383924	-4.001107	-4.015224	1.296797	0.101722	0.344396
-3.458947	2.479757	-2.318559	-1.005022	-0.193708	1.098402
-1.038869	2.398534	-3.707070	0.805454	2.646420	-2.702305
3.808318	-0.650137	-1.497675	-0.314687	-0.021665	-1.904999
4.279004	-4.831509	2.645776	2.310597	1.010772	-0.192730
-2.971694	2.126195	4.860483	-0.099466	-0.034697	0.919938
-0.298710	-4.558705	-0.859405	-0.382004	2.446647	0.948515
2.747791	3.812911	4.563375	-0.274060	-1.489899	-0.238531
-3.914992	-2.328056	-2.828416	-0.745985	-0.993423	0.808921
-3.818856	1.526138	-1.352697	0.302671	1.483267	-0.116845
-4.113851	-3.288509	-1.893142	1.524033	-1.017916	-1.195327
-3.868887	2.142817	-4.588537	-2.357366	1.504310	1.816743
-2.355678	-1.728697	-2.195055	-0.387268	-2.210172	0.875827
-3.242840	-4.770775	1.234557	1.337399	1.320797	1.938842
0.052142	4.917104	0.015542	0.526872	0.638900	-0.979536
0.633509	-0.833514	-0.824813	0.356795	-0.803874	-0.607286
-0.435989	-3.013776	4.605042	0.838383	-0.187686	-1.265875
-0.639763	2.835042	1.222732	-1.205539	0.637857	-0.747449
0.348616	-1.524233	-4.375180	1.348961	0.349828	-1.172938
-1.819796	0.779576	3.820975	-0.774337	0.686341	-1.215939
-1.678502	-4.059955	1.362916	-0.899075	-2.032928	0.923558
-4.394255	-3.278241	1.158067	-0.459863	0.983119	-0.946386
2.518958	0.912420	2.483913	-1.053721	1.133127	-1.199802
-0.043887	-2.608363	1.335731	-0.655710	2.207783	-1.008127
2.630131	-3.060265	3.022169	-0.443523	0.438235	0.692217
2.734898	-2.679475	-1.240863	0.194567	0.167506	0.285885
2.735113	-0.618415	3.941127	1.024038	0.593087	-2.810667
-1.395861	-1.688352	-1.642897	0.278082	1.395240	0.413102
-4.564237	-0.710235	2.350836	-0.859944	0.257680	0.942326
-1.707885	0.695376	2.046077	0.334033	-0.771466	0.700395
-0.689760	-4.053689	3.053371	1.116299	0.960789	0.961368
64

-3.781074	-4.714546	-0.597548	1.424559	0.582414	0.788421
-1.356864	2.029291	3.275989	0.543838	-1.969084	0.708209
-1.844723	-4.527474	-3.330157	-1.171213	-1.504792	-1.492459
3.471007	-2.248834	-4.518018	-0.767929	0.335112	-0.686629
1.676532	-0.920775	-2.503738	-0.030670	-0.920439	-0.959875
-4.872537	4.793927	1.835475	-0.675332	-0.581819	-0.599701
3.977065	-1.464567	3.144497	-0.511981	0.361587	0.194670
3.484041	3.981818	3.929406	-0.656382	0.254662	-0.145791
-0.489973	-1.203119	1.833125	-0.363261	-0.540079	-0.243839
2.658197	0.697716	4.444982	-0.865453	0.939692	0.664576
2.476942	-1.771096	-4.862507	0.423591	-0.629898	0.633970
-0.081506	-4.653442	1.802272	0.648306	0.250780	-1.340905
-3.070327	4.219264	-1.023548	-1.372469	-0.682597	2.210033
1.976366	3.595196	3.879141	-1.130966	0.144252	0.651132
0.414255	-2.287749	-2.664976	0.626493	0.215325	1.179451
0.692164	-3.473729	3.025083	-1.611766	-0.933473	-0.485493
3.658814	-4.792120	4.709163	-0.168888	0.841815	1.169874
4.714073	-3.047731	-2.926490	0.331936	-1.971700	-0.296548
0.426435	-3.456015	-0.980826	-0.667137	0.828476	-0.404248
4.899687	-2.228088	-2.282402	-0.183388	-2.182269	-1.439266
4.204003	4.296620	-2.405465	1.569428	-1.173120	0.249788
-3.044100	-2.605131	-2.709760	-2.338255	-0.804330	2.025267
1.642855	4.637544	3.537941	0.427403	0.581364	2.466783
3.697642	-3.437234	-4.439704	-0.447489	-2.217929	-0.195157
-1.061817	-4.219316	4.336974	1.935255	0.048760	-0.561219
-0.245691	2.330451	4.272512	-0.674790	-0.944278	1.737069
-1.586298	0.295332	4.877077	-0.232507	0.355526	-1.945301
0.387610	-2.377067	3.724996	-0.668866	-2.184358	-1.126358
-0.503596	-3.936710	0.183662	1.202705	1.745270	1.271568
-0.126142	-3.619475	1.620254	0.746991	0.856988	0.054849
4.796057	3.550467	3.164817	-0.562726	0.901347	-0.931811
